-2.721408121827410923e+03 -5.233477157360405272e+02 2.639750925380710396e+04
-2.721408121827410923e+03 -5.083949238578679797e+02 2.639750925380710396e+04
-2.707663636363636215e+03 -4.909499999999999886e+02 2.626418850000000020e+04
-2.577487499999999727e+03 -4.531846153846153697e+02 2.500148712980769415e+04
-2.448024657534246671e+03 -4.169712328767123495e+02 2.374570467123287744e+04
-2.414943243243243160e+03 -3.980675675675674938e+02 2.342481677027027035e+04
-2.393381249999999909e+03 -3.813629464285714334e+02 2.321566662053571417e+04
-2.341124017467248450e+03 -3.601729257641920867e+02 2.270877433624453988e+04
-2.310850862068965398e+03 -3.428185344827585936e+02 2.241512639224137820e+04
-2.310850862068965398e+03 -3.301215517241379303e+02 2.241512639224137820e+04
-2.252594117647058738e+03 -3.094222689075630228e+02 2.185003917226890917e+04
-2.271683898305084767e+03 -2.995627118644067650e+02 2.203520899576271404e+04
-2.271683898305084767e+03 -2.870809322033898638e+02 2.203520899576271404e+04
-2.262098734177214737e+03 -2.734405063291139300e+02 2.194223343037974701e+04
-3.622414864864865194e+03 -3.980675675675676075e+02 3.513722515540540917e+04
-3.504035294117647027e+03 -3.658058823529411825e+02 3.398894982352941588e+04
-3.458821935483871130e+03 -3.420812903225806281e+02 3.355038272903225879e+04
-3.436649999999999636e+03 -3.210057692307691468e+02 3.333531617307692068e+04
-3.414760509554139844e+03 -3.001987261146496735e+02 3.312298931847133645e+04
-3.414760509554139844e+03 -2.814363057324840725e+02 3.312298931847133645e+04
-3.414760509554139844e+03 -2.626738853503184146e+02 3.312298931847133645e+04
-3.393148101265822788e+03 -2.423677215189873664e+02 3.291335014556962415e+04
-3.350733750000000327e+03 -2.209275000000000091e+02 3.250193326875000275e+04
-3.309366666666667243e+03 -2.000166666666666799e+02 3.210067483333333803e+04
-3.269008536585365619e+03 -1.796158536585365653e+02 3.170920318902438885e+04
-3.229622891566265025e+03 -1.597066265060240937e+02 3.132716459638554079e+04
-3.229622891566265025e+03 -1.419614457831325183e+02 3.132716459638554079e+04
-3.172292307692307531e+03 -1.220112426035502864e+02 3.077106108284023503e+04
-3.172292307692307531e+03 -1.045810650887573985e+02 3.077106108284023503e+04
-3.153631764705882688e+03 -8.663823529411764923e+01 3.059005484117647211e+04
-3.153631764705882688e+03 -6.931058823529411939e+01 3.059005484117647211e+04
-3.598103355704698515e+03 -3.953959731543624656e+01 3.490140485234899825e+04
-3.598103355704698515e+03 -1.976979865771812328e+01 3.490140485234899825e+04
-3.598103355704698515e+03 0.000000000000000000e+00 3.490140485234899825e+04
-3.598103355704698515e+03 1.976979865771812328e+01 3.490140485234899825e+04
-3.598103355704698515e+03 3.953959731543624656e+01 3.490140485234899825e+04
-3.598103355704698515e+03 5.930939597315437339e+01 3.490140485234899825e+04
-3.723037499999999454e+03 8.182499999999998863e+01 3.611325918749999983e+04
-3.829410000000000309e+03 1.052035714285714363e+02 3.714506659285714704e+04
-3.856959712230215700e+03 1.271525179856114960e+02 3.741229728776978300e+04
-3.856959712230215700e+03 1.483446043165467358e+02 3.741229728776978300e+04
-3.884908695652173719e+03 1.707652173913043612e+02 3.768340089130435081e+04
-4.505188235294117476e+03 2.475378151260504183e+02 4.370007834453781834e+04
-3.289063803680981437e+03 2.168613496932515261e+02 3.190373817791411057e+04
-3.098944508670520008e+03 2.213531791907514332e+02 3.005959146242774659e+04
-3.116961627906976446e+03 2.397662790697674495e+02 3.023435652906976975e+04
-3.153631764705882688e+03 2.599147058823529051e+02 3.059005484117647211e+04
-3.063528000000000247e+03 2.693211428571428883e+02 2.971605327428571763e+04
-3.116961627906976446e+03 2.911447674418604947e+02 3.023435652906976975e+04
-3.116961627906976446e+03 3.082709302325581007e+02 3.023435652906976975e+04
-3.116961627906976446e+03 3.253970930232558203e+02 3.023435652906976975e+04
-3.116961627906976446e+03 3.425232558139534831e+02 3.023435652906976975e+04
-3.098944508670520008e+03 3.575705202312138340e+02 3.005959146242774659e+04
-3.098944508670520008e+03 3.745976878612716519e+02 3.005959146242774659e+04
-3.098944508670520008e+03 3.916248554913294697e+02 3.005959146242774659e+04
-3.046121590909090628e+03 4.016863636363636374e+02 2.954721206249999886e+04
-2.995069273743016311e+03 4.114106145251396356e+02 2.905200739106145193e+04
-2.978429999999999836e+03 4.254900000000000091e+02 2.889060735000000204e+04
-2.945700000000000273e+03 4.369994505494505574e+02 2.857312814835165045e+04
-2.961974585635359290e+03 4.556883977900552054e+02 2.873099073480662992e+04
-2.929603278688524369e+03 4.668049180327868726e+02 2.841699083606557542e+04
-2.897931891891892064e+03 4.776810810810811176e+02 2.810978012432432661e+04
-2.897931891891892064e+03 4.936037837837837969e+02 2.810978012432432661e+04
-2.851688297872340627e+03 5.013957446808510667e+02 2.766121980319149225e+04
-2.851688297872340627e+03 5.170643617021277123e+02 2.766121980319149225e+04
-2.851688297872340627e+03 5.327329787234042442e+02 2.766121980319149225e+04
-2.836599999999999909e+03 5.455000000000000000e+02 2.751486414285714272e+04
-2.836599999999999909e+03 5.610857142857142890e+02 2.751486414285714272e+04
-2.821670526315789630e+03 5.736363157894737697e+02 2.737004906842105629e+04
-2.821670526315789630e+03 5.891399999999999864e+02 2.737004906842105629e+04
-2.792278124999999363e+03 5.983453124999999773e+02 2.708494439062499805e+04
-2.821670526315789630e+03 6.201473684210526471e+02 2.737004906842105629e+04
-2.792278124999999363e+03 6.290296875000000227e+02 2.708494439062499805e+04
-2.806897382198952528e+03 6.477455497382198928e+02 2.722675038219895214e+04
-2.749320000000000164e+03 6.495646153846153084e+02 2.666825293846154091e+04
-2.735292857142856974e+03 6.612795918367346530e+02 2.653219042346938659e+04
-2.721408121827410923e+03 6.728756345177663434e+02 2.639750925380710396e+04
-2.680586999999999989e+03 6.775110000000000809e+02 2.600154661500000293e+04
-2.680586999999999989e+03 6.922395000000000209e+02 2.600154661500000293e+04
-2.640972413793103897e+03 6.965201970443349637e+02 2.561728730541872210e+04
-2.615206829268292950e+03 7.040941463414634427e+02 2.536736255121951399e+04
-2.589939130434782328e+03 7.257521739130434071e+02 2.512226726086956478e+04
-2.540840758293838917e+03 7.259545023696682620e+02 2.464601574881516717e+04
-1.735007766990291429e+03 5.147825242718446361e+02 1.682948000970873909e+04
-1.712835143769968226e+03 5.176150159744408938e+02 1.661440678274760648e+04
-2.252594117647058738e+03 7.054827731092436807e+02 2.185003917226890917e+04
-2.243169037656903583e+03 7.148560669456066989e+02 2.175861641422594039e+04
-2.243169037656903583e+03 7.271811715481170495e+02 2.175861641422594039e+04
-2.233822499999999764e+03 7.364249999999999545e+02 2.166795551250000062e+04
-2.215361157024793101e+03 7.546834710743801224e+02 2.148888149999999951e+04
-2.197202459016393277e+03 7.605700819672130137e+02 2.131274312704917975e+04
-2.188234285714285761e+03 7.694889795918368236e+02 2.122575233877551364e+04
-2.188234285714285761e+03 7.815122448979592491e+02 2.122575233877551364e+04
-2.161763709677419229e+03 7.839362903225805894e+02 2.096898920564516084e+04
-2.144469599999999900e+03 7.894476000000000795e+02 2.080123729200000162e+04
-1.868004878048780256e+03 7.492547038327525115e+02 1.811954467944250791e+04
-1.701960000000000036e+03 7.387628571428572286e+02 1.650891848571428636e+04
-1.701960000000000036e+03 7.481142857142856428e+02 1.650891848571428636e+04
-1.691222082018927495e+03 7.526867507886435078e+02 1.640476127129337692e+04
-1.685903773584905593e+03 7.595830188679245794e+02 1.635317397169811375e+04
-1.675366875000000164e+03 7.640409375000000409e+02 1.625096663437500138e+04
-1.659806191950464154e+03 7.660643962848296269e+02 1.610002886377708819e+04
-1.659806191950464154e+03 7.751842105263157237e+02 1.610002886377708819e+04
-1.670147663551401820e+03 7.891906542056074159e+02 1.620034057009345815e+04
-1.649592000000000098e+03 7.885412307692307650e+02 1.600095176307692418e+04
-1.654683333333333621e+03 8.000666666666667197e+02 1.605033741666666901e+04
-1.288743749999999864e+03 6.656149038461538794e+02 1.250074356490384707e+04
-2.243169037656903583e+03 1.183210041841004113e+03 2.175861641422594039e+04
-2.252594117647058738e+03 1.200558403361344517e+03 2.185003917226890917e+04
-2.233822499999999764e+03 1.202827500000000100e+03 2.166795551250000062e+04
-2.197202459016393277e+03 1.195181557377049103e+03 2.131274312704917975e+04
-2.233822499999999764e+03 1.227375000000000000e+03 2.166795551250000062e+04
-2.224553526970954408e+03 1.234504979253111969e+03 2.157804698340249161e+04
-2.206244444444444071e+03 1.236466666666666470e+03 2.140044988888888838e+04
-2.197202459016393277e+03 1.243471721311475449e+03 2.131274312704917975e+04
-2.206244444444444071e+03 1.260711111111110995e+03 2.140044988888888838e+04
-2.197202459016393277e+03 1.267616803278688394e+03 2.131274312704917975e+04
-2.188234285714285761e+03 1.274466122448979604e+03 2.122575233877551364e+04
-2.188234285714285761e+03 1.286489387755102143e+03 2.122575233877551364e+04
-2.188234285714285761e+03 1.298512653061224682e+03 2.122575233877551364e+04
-2.179339024390244049e+03 1.305208536585365891e+03 2.113946879268292832e+04
-2.170515789473683981e+03 1.311850202429149931e+03 2.105388389878542512e+04
-2.161763709677419229e+03 1.318438306451612789e+03 2.096898920564516084e+04
-2.161763709677419229e+03 1.330316129032258004e+03 2.096898920564516084e+04
-2.161763709677419229e+03 1.342193951612903220e+03 2.096898920564516084e+04
-2.170515789473683981e+03 1.359553846153846052e+03 2.105388389878542512e+04
-2.119041106719367235e+03 1.338954545454545269e+03 2.055458230434782672e+04
-2.054089655172414041e+03 1.309199999999999818e+03 1.992455679310344931e+04
-2.054089655172414041e+03 1.320486206896551721e+03 1.992455679310344931e+04
-2.061989999999999782e+03 1.336894615384615236e+03 2.000118970384615386e+04
-2.000438059701492648e+03 1.307978731343283698e+03 1.940413926492537576e+04
-2.015478947368421132e+03 1.328887218045112832e+03 1.955003504887218151e+04
-1.985619999999999891e+03 1.320109999999999900e+03 1.926040490000000136e+04
-1.949517818181818257e+03 1.306819636363636391e+03 1.891021572000000015e+04
-1.901125531914893372e+03 1.284826595744680844e+03 1.844081320212765786e+04
-1.080881854838709614e+03 7.779973790322579816e+02 1.048449460282258042e+04
-1.080881854838709614e+03 7.839362903225805894e+02 1.048449460282258042e+04
-1.080881854838709614e+03 7.898752016129030835e+02 1.048449460282258042e+04
-1.100857084188911585e+03 8.105211498973304742e+02 1.067825322997946569e+04
-1.080881854838709614e+03 8.017530241935482991e+02 1.048449460282258042e+04
-1.080881854838709614e+03 8.076919354838709069e+02 1.048449460282258042e+04
-1.080881854838709614e+03 8.136308467741934010e+02 1.048449460282258042e+04
-1.080881854838709614e+03 8.195697580645161224e+02 1.048449460282258042e+04
-1.100857084188911585e+03 8.407644763860369039e+02 1.067825322997946569e+04
-1.080881854838709614e+03 8.314475806451612243e+02 1.048449460282258042e+04
-1.080881854838709614e+03 8.373864919354837184e+02 1.048449460282258042e+04
-1.080881854838709614e+03 8.433254032258064399e+02 1.048449460282258042e+04
-1.080881854838709614e+03 8.492643145161289340e+02 1.048449460282258042e+04
-1.080881854838709614e+03 8.552032258064515418e+02 1.048449460282258042e+04
-1.080881854838709614e+03 8.611421370967740359e+02 1.048449460282258042e+04
-1.080881854838709614e+03 8.670810483870967573e+02 1.048449460282258042e+04
-1.080881854838709614e+03 8.730199596774192514e+02 1.048449460282258042e+04
-1.080881854838709614e+03 8.789588709677418592e+02 1.048449460282258042e+04
-1.080881854838709614e+03 8.848977822580643533e+02 1.048449460282258042e+04
-1.103122222222222035e+03 9.091666666666666288e+02 1.070022494444444419e+04
-1.128668210526315761e+03 9.364225263157894688e+02 1.094801962736842142e+04
-1.131049367088607369e+03 9.446126582278481010e+02 1.097111671518987350e+04
-1.133440591966173315e+03 9.528374207188161336e+02 1.099431146511627958e+04
-1.145549999999999955e+03 9.693115384615383618e+02 1.111177205769230750e+04
-1.148002997858672188e+03 9.776948608137045085e+02 1.113556600214132777e+04
-1.150466523605150087e+03 9.861141630901287272e+02 1.115946206652360524e+04
-1.152940645161290377e+03 9.945696774193548890e+02 1.118346090967742020e+04
-1.162944468546637609e+03 1.009589154013015104e+03 1.128049744685466430e+04
-1.165472608695652070e+03 1.018187608695652216e+03 1.130502026739130451e+04
-1.165472608695652070e+03 1.024591304347826053e+03 1.130502026739130451e+04
-1.264427830188679081e+03 1.132427122641509413e+03 1.226488047877358440e+04
-1.221224145785876772e+03 1.100443735763097948e+03 1.184580711389521639e+04
-1.232453793103448334e+03 1.117334482758620879e+03 1.195473407586207031e+04
-1.229627064220183456e+03 1.121527981651376194e+03 1.192731496100917502e+04
-1.229627064220183456e+03 1.128284174311926563e+03 1.192731496100917502e+04
-1.229627064220183456e+03 1.135040366972477159e+03 1.192731496100917502e+04
-1.226813272311212813e+03 1.139183752860411914e+03 1.190002133409611088e+04
-1.232453793103448334e+03 1.151193103448275906e+03 1.195473407586207031e+04
-1.229627064220183456e+03 1.155308944954128492e+03 1.192731496100917502e+04
-1.238146420323325401e+03 1.170116397228637425e+03 1.200995224711316405e+04
-1.246784651162790851e+03 1.185130465116279083e+03 1.209374261162790754e+04
-1.323746666666666670e+03 1.294653333333333421e+03 1.284026993333333485e+04
-1.327023267326732594e+03 1.305149257425742462e+03 1.287205277970296993e+04
-1.333625373134328356e+03 1.318970149253731506e+03 1.293609284328358262e+04
-1.340293499999999995e+03 1.332929249999999911e+03 1.300077330750000147e+04
-1.350421662468513887e+03 1.350421662468513887e+03 1.309901592695214094e+04
-1.353831818181818107e+03 1.361270454545454413e+03 1.313209425000000010e+04
-1.360704060913705462e+03 1.375656852791877782e+03 1.319875462690355198e+04
-1.367646428571428487e+03 1.390190051020407964e+03 1.326609521173469329e+04
-1.378193830334190125e+03 1.408483804627249356e+03 1.336840442930591234e+04
-1.385316279069767461e+03 1.423374418604651282e+03 1.343749179069767524e+04
-1.392512727272727261e+03 1.438419740259740365e+03 1.350729694285714322e+04
-1.396139062499999682e+03 1.449836718749999818e+03 1.354247219531249903e+04
-1.978292988929889134e+03 2.130469372693726655e+03 1.918933329520295229e+04
-1.963799999999999955e+03 2.125651648351647964e+03 1.904875209890109909e+04
-1.971019852941176623e+03 2.144296323529411893e+03 1.911878427573529552e+04
-1.971019852941176623e+03 2.155126102941176669e+03 1.911878427573529552e+04
-1.978292988929889134e+03 2.173948339483394648e+03 1.918933329520295229e+04
-1.978292988929889134e+03 2.184818081180811987e+03 1.918933329520295229e+04
-1.985619999999999891e+03 2.203820000000000164e+03 1.926040490000000136e+04
-2.000438059701492648e+03 2.231257835820895707e+03 1.940413926492537576e+04
-2.000438059701492648e+03 2.242249253731343288e+03 1.940413926492537576e+04
-2.000438059701492648e+03 2.253240671641791323e+03 1.940413926492537576e+04
-2.000438059701492648e+03 2.264232089552238904e+03 1.940413926492537576e+04
-2.023084528301886849e+03 2.300980754716981210e+03 1.962380876603773868e+04
-2.023084528301886849e+03 2.312096603773585230e+03 1.962380876603773868e+04
-2.007930337078651291e+03 2.305810112359550203e+03 1.947681394382022336e+04
-1.949517818181818257e+03 2.249443636363636415e+03 1.891021572000000015e+04
-1.874536363636363376e+03 2.173226223776223378e+03 1.818289973076922979e+04
-6.092243181818181256e+03 7.196880681818181074e+03 5.909442412499999773e+04
-5.256052941176470085e+03 6.237952941176470631e+03 5.098342473529411654e+04
-4.964049999999999272e+03 5.918675000000000182e+03 4.815101224999999977e+04
-4.829886486486486319e+03 5.785248648648648668e+03 4.684963354054054071e+04
-4.621701724137930796e+03 5.561278448275861592e+03 4.483025278448275640e+04
-4.505188235294117476e+03 5.445831932773109656e+03 4.370007834453781834e+04
-4.467644999999999527e+03 5.424997500000000400e+03 4.333591102500000125e+04
-4.467644999999999527e+03 5.449544999999999163e+03 4.333591102500000125e+04
-4.467644999999999527e+03 5.474092499999999745e+03 4.333591102500000125e+04
-4.467644999999999527e+03 5.498640000000000327e+03 4.333591102500000125e+04
-4.467644999999999527e+03 5.523187500000000000e+03 4.333591102500000125e+04
-4.323527419354838457e+03 5.368775806451612880e+03 4.193797841129032167e+04
-4.323527419354838457e+03 5.392531451612902856e+03 4.193797841129032167e+04
-4.358678048780488098e+03 5.460321951219512812e+03 4.227893758536585665e+04
-4.394404918032786554e+03 5.529223770491802497e+03 4.262548625409835950e+04
-4.430722314049586203e+03 5.599264462809916949e+03 4.297776299999999901e+04
-4.467644999999999527e+03 5.670472499999999854e+03 4.333591102500000125e+04
-4.430722314049586203e+03 5.647953719008263761e+03 4.297776299999999901e+04
-4.323527419354838457e+03 5.535065322580644533e+03 4.193797841129032167e+04
-4.188417187500000182e+03 5.385107812499999454e+03 4.062741658593749889e+04
-4.221396850393700333e+03 5.450704724409448318e+03 4.094731750393701077e+04
-4.786762499999999818e+03 6.207010714285713220e+03 4.643133324107142835e+04
-4.661890434782608281e+03 6.070703478260868906e+03 4.522008106956521806e+04
-4.786762499999999818e+03 6.259612499999999272e+03 4.643133324107142835e+04
-4.744401769911503834e+03 6.230285840707964780e+03 4.602043648672566633e+04
-4.918508256880733825e+03 6.485944954128441168e+03 4.770925984403670009e+04
-4.964049999999999272e+03 6.573274999999999636e+03 4.815101224999999977e+04
-5.010442990654204550e+03 6.662237383177570337e+03 4.860102171028037264e+04
-5.057711320754716326e+03 6.752878301886791633e+03 4.905952191509433760e+04
-5.057711320754716326e+03 6.780667924528301228e+03 4.905952191509433760e+04
-5.057711320754716326e+03 6.808457547169809914e+03 4.905952191509433760e+04
-5.057711320754716326e+03 6.836247169811319509e+03 4.905952191509433760e+04
-5.057711320754716326e+03 6.864036792452830014e+03 4.905952191509433760e+04
-5.057711320754716326e+03 6.891826415094339609e+03 4.905952191509433760e+04
-5.010442990654204550e+03 6.882476635514018199e+03 4.860102171028037264e+04
-1.276469999999999891e+04 1.823528571428571377e+04 1.238168886428571423e+05
-5.643341052631579259e+03 8.154937894736842281e+03 5.474009813684211258e+04
-5.205023300970873606e+03 7.550143689320387239e+03 5.048844002912621363e+04
-7.727126086956522158e+03 -2.604169565217391664e+03 7.536680178260870161e+04
-7.957786567164179360e+03 -2.637940298507463012e+03 7.761655705970150302e+04
-7.616738571428571959e+03 -2.482804285714285925e+03 7.429013318571429409e+04
-2.776935937499999454e+03 -7.210828124999999318e+02 2.708494439062499805e+04
-2.776935937499999454e+03 -7.057406249999999091e+02 2.708494439062499805e+04
-2.720263775510204141e+03 -6.763086734693875997e+02 2.653219042346938659e+04
-2.762547668393781805e+03 -6.715585492227979785e+02 2.694460789119171022e+04
-2.762547668393781805e+03 -6.562958549222797728e+02 2.694460789119171022e+04
-2.762547668393781805e+03 -6.410331606217616809e+02 2.694460789119171022e+04
-2.776935937499999454e+03 -6.290296875000000227e+02 2.708494439062499805e+04
-2.762547668393781805e+03 -6.105077720207253833e+02 2.694460789119171022e+04
-2.762547668393781805e+03 -5.952450777202072913e+02 2.694460789119171022e+04
-2.734213846153846134e+03 -5.740338461538461843e+02 2.666825293846154091e+04
-2.706455329949238148e+03 -5.532532994923857359e+02 2.639750925380710396e+04
-2.706455329949238148e+03 -5.383005076142130747e+02 2.639750925380710396e+04
-2.706455329949238148e+03 -5.233477157360405272e+02 2.639750925380710396e+04
-2.706455329949238148e+03 -5.083949238578679797e+02 2.639750925380710396e+04
-2.692786363636363603e+03 -4.909499999999999886e+02 2.626418850000000020e+04
-2.563325480769230580e+03 -4.531846153846153697e+02 2.500148712980769415e+04
-2.434573972602740014e+03 -4.169712328767123495e+02 2.374570467123287744e+04
-2.401674324324324516e+03 -3.980675675675674938e+02 2.342481677027027035e+04
-2.380230803571428623e+03 -3.813629464285714334e+02 2.321566662053571417e+04
-2.328260698689955916e+03 -3.601729257641920867e+02 2.270877433624453988e+04
-2.288290557939913924e+03 -3.413472103004291966e+02 2.231892413304721049e+04
-2.298153879310344564e+03 -3.301215517241379303e+02 2.241512639224137820e+04
-2.240217226890756592e+03 -3.094222689075630228e+02 2.185003917226890917e+04
-2.249669620253164339e+03 -2.982987341772151808e+02 2.194223343037974701e+04
-2.259202118644067923e+03 -2.870809322033898638e+02 2.203520899576271404e+04
-2.249669620253164339e+03 -2.734405063291139300e+02 2.194223343037974701e+04
-3.627018367346938703e+03 -4.007755102040816269e+02 3.537625389795918454e+04
-3.484782352941177123e+03 -3.658058823529411825e+02 3.398894982352941588e+04
-3.462153896103896386e+03 -3.443025974025973710e+02 3.376824235714285896e+04
-3.417767307692307440e+03 -3.210057692307691468e+02 3.333531617307692068e+04
-3.395998089171974243e+03 -3.001987261146496735e+02 3.312298931847133645e+04
-3.395998089171974243e+03 -2.814363057324840725e+02 3.312298931847133645e+04
-3.395998089171974243e+03 -2.626738853503184146e+02 3.312298931847133645e+04
-3.374504430379746736e+03 -2.423677215189873664e+02 3.291335014556962415e+04
-3.332323125000000346e+03 -2.209275000000000091e+02 3.250193326875000275e+04
-3.311625465838509172e+03 -2.012590062111801217e+02 3.230005790683229861e+04
-3.251046951219511811e+03 -1.796158536585365653e+02 3.170920318902438885e+04
-3.192644910179641101e+03 -1.587502994011975943e+02 3.113957678443114128e+04
-3.211877710843372824e+03 -1.419614457831325183e+02 3.132716459638554079e+04
-3.154862130177514246e+03 -1.220112426035502864e+02 3.077106108284023503e+04
-3.154862130177514246e+03 -1.045810650887573985e+02 3.077106108284023503e+04
-3.136304117647058774e+03 -8.663823529411764923e+01 3.059005484117647211e+04
-3.136304117647058774e+03 -6.931058823529411939e+01 3.059005484117647211e+04
-3.578333557046979877e+03 -3.953959731543624656e+01 3.490140485234899825e+04
-3.578333557046979877e+03 -1.976979865771812328e+01 3.490140485234899825e+04
-3.602511486486486319e+03 0.000000000000000000e+00 3.513722515540540917e+04
-3.578333557046979877e+03 1.976979865771812328e+01 3.490140485234899825e+04
-3.602511486486486319e+03 3.980675675675676217e+01 3.513722515540540917e+04
-3.602511486486486319e+03 5.971013513513513971e+01 3.513722515540540917e+04
-3.702581249999999727e+03 8.182499999999998863e+01 3.611325918749999983e+04
-3.808369285714285979e+03 1.052035714285714363e+02 3.714506659285714704e+04
-3.835767625899280574e+03 1.271525179856114960e+02 3.741229728776978300e+04
-3.835767625899280574e+03 1.483446043165467358e+02 3.741229728776978300e+04
-3.863563043478261079e+03 1.707652173913043612e+02 3.768340089130435081e+04
-3.291183333333333394e+03 2.182000000000000171e+02 3.210067483333333803e+04
-3.099835465116279465e+03 2.226401162790697583e+02 3.023435652906976975e+04
-3.117963157894736469e+03 2.411684210526315724e+02 3.041116563157894780e+04
-3.136304117647058774e+03 2.599147058823529051e+02 3.059005484117647211e+04
-3.064205172413792752e+03 2.708689655172413495e+02 2.988683518965517214e+04
-3.099835465116279465e+03 2.911447674418604947e+02 3.023435652906976975e+04
-3.099835465116279465e+03 3.082709302325581007e+02 3.023435652906976975e+04
-3.099835465116279465e+03 3.253970930232558203e+02 3.023435652906976975e+04
-3.099835465116279465e+03 3.425232558139534831e+02 3.023435652906976975e+04
-3.081917341040462361e+03 3.575705202312138340e+02 3.005959146242774659e+04
-3.081917341040462361e+03 3.745976878612716519e+02 3.005959146242774659e+04
-3.081917341040462361e+03 3.916248554913294697e+02 3.005959146242774659e+04
-3.029384659090908826e+03 4.016863636363636374e+02 2.954721206249999886e+04
-2.978612849162011116e+03 4.114106145251396356e+02 2.905200739106145193e+04
-2.962065000000000055e+03 4.254900000000000091e+02 2.889060735000000204e+04
-2.929514835164835404e+03 4.369994505494505574e+02 2.857312814835165045e+04
-2.945699999999999818e+03 4.556883977900552054e+02 2.873099073480662992e+04
-2.913506557377049376e+03 4.668049180327868726e+02 2.841699083606557542e+04
-2.882009189189189328e+03 4.776810810810811176e+02 2.810978012432432661e+04
-2.882009189189189328e+03 4.936037837837837969e+02 2.810978012432432661e+04
-2.851185561497326034e+03 5.040770053475935697e+02 2.780914076470588407e+04
-2.836019680851063640e+03 5.170643617021277123e+02 2.766121980319149225e+04
-2.836019680851063640e+03 5.327329787234042442e+02 2.766121980319149225e+04
-2.821014285714285506e+03 5.455000000000000000e+02 2.751486414285714272e+04
-2.821014285714285506e+03 5.610857142857142890e+02 2.751486414285714272e+04
-2.806166842105263640e+03 5.736363157894737697e+02 2.737004906842105629e+04
-2.806166842105263640e+03 5.891399999999999864e+02 2.737004906842105629e+04
-2.776935937499999454e+03 5.983453124999999773e+02 2.708494439062499805e+04
-2.806166842105263640e+03 6.201473684210526471e+02 2.737004906842105629e+04
-2.776935937499999454e+03 6.290296875000000227e+02 2.708494439062499805e+04
-2.791474869109947576e+03 6.477455497382198928e+02 2.722675038219895214e+04
-2.748307731958762815e+03 6.529128865979381544e+02 2.680571815979381427e+04
-2.734213846153846134e+03 6.646707692307693378e+02 2.666825293846154091e+04
-2.706455329949238148e+03 6.728756345177663434e+02 2.639750925380710396e+04
-2.665858499999999822e+03 6.775110000000000809e+02 2.600154661500000293e+04
-2.665858499999999822e+03 6.922395000000000209e+02 2.600154661500000293e+04
-2.626461576354679892e+03 6.965201970443349637e+02 2.561728730541872210e+04
-2.600837560975609904e+03 7.040941463414634427e+02 2.536736255121951399e+04
-2.600837560975609904e+03 7.184634146341463747e+02 2.536736255121951399e+04
-2.575708695652173446e+03 7.257521739130434071e+02 2.512226726086956478e+04
-2.526880094786729842e+03 7.259545023696682620e+02 2.464601574881516717e+04
-1.742391176470588562e+03 5.102029411764706310e+02 1.699447491176470794e+04
-1.725474757281553366e+03 5.147825242718446361e+02 1.682948000970873909e+04
-1.703423961661341991e+03 5.176150159744408938e+02 1.661440678274760648e+04
-2.240217226890756592e+03 7.054827731092436807e+02 2.185003917226890917e+04
-2.230843933054392892e+03 7.148560669456066989e+02 2.175861641422594039e+04
-2.230843933054392892e+03 7.271811715481170495e+02 2.175861641422594039e+04
-2.221548749999999927e+03 7.364249999999999545e+02 2.166795551250000062e+04
-2.203188842975206626e+03 7.546834710743801224e+02 2.148888149999999951e+04
-2.185129918032786463e+03 7.605700819672130137e+02 2.131274312704917975e+04
-2.176211020408163677e+03 7.694889795918368236e+02 2.122575233877551364e+04
-2.176211020408163677e+03 7.815122448979592491e+02 2.122575233877551364e+04
-2.149885887096773786e+03 7.839362903225805894e+02 2.096898920564516084e+04
-2.132686799999999948e+03 7.894476000000000795e+02 2.080123729200000162e+04
-1.857741114982578210e+03 7.492547038327525115e+02 1.811954467944250791e+04
-1.692608571428571395e+03 7.294114285714285870e+02 1.650891848571428636e+04
-1.692608571428571395e+03 7.387628571428572286e+02 1.650891848571428636e+04
-1.692608571428571395e+03 7.481142857142856428e+02 1.650891848571428636e+04
-1.681929652996845562e+03 7.526867507886435078e+02 1.640476127129337692e+04
-1.676640566037735653e+03 7.595830188679245794e+02 1.635317397169811375e+04
-1.666161562500000173e+03 7.640409375000000409e+02 1.625096663437500138e+04
-1.650686377708977943e+03 7.660643962848296269e+02 1.610002886377708819e+04
-1.655812732919254586e+03 7.775916149068323193e+02 1.615002895341614931e+04
-1.660971028037383121e+03 7.891906542056074159e+02 1.620034057009345815e+04
-1.640528307692307635e+03 7.885412307692307650e+02 1.600095176307692418e+04
-1.645591666666666697e+03 8.000666666666667197e+02 1.605033741666666901e+04
-1.281662740384615290e+03 6.656149038461538794e+02 1.250074356490384707e+04
-2.240217226890756592e+03 1.188181512605042144e+03 2.185003917226890917e+04
-2.240217226890756592e+03 1.200558403361344517e+03 2.185003917226890917e+04
-2.221548749999999927e+03 1.202827500000000100e+03 2.166795551250000062e+04
-2.185129918032786463e+03 1.195181557377049103e+03 2.131274312704917975e+04
-2.221548749999999927e+03 1.227375000000000000e+03 2.166795551250000062e+04
-2.212330705394191227e+03 1.234504979253111969e+03 2.157804698340249161e+04
-2.194122222222221808e+03 1.236466666666666470e+03 2.140044988888888838e+04
-2.185129918032786463e+03 1.243471721311475449e+03 2.131274312704917975e+04
-2.194122222222221808e+03 1.260711111111110995e+03 2.140044988888888838e+04
-2.194122222222221808e+03 1.272833333333333258e+03 2.140044988888888838e+04
-2.176211020408163677e+03 1.274466122448979604e+03 2.122575233877551364e+04
-2.176211020408163677e+03 1.286489387755102143e+03 2.122575233877551364e+04
-2.176211020408163677e+03 1.298512653061224682e+03 2.122575233877551364e+04
-2.167364634146341359e+03 1.305208536585365891e+03 2.113946879268292832e+04
-2.158589878542510178e+03 1.311850202429149931e+03 2.105388389878542512e+04
-2.149885887096773786e+03 1.318438306451612789e+03 2.096898920564516084e+04
-2.149885887096773786e+03 1.330316129032258004e+03 2.096898920564516084e+04
-2.149885887096773786e+03 1.342193951612903220e+03 2.096898920564516084e+04
-2.158589878542510178e+03 1.359553846153846052e+03 2.105388389878542512e+04
-2.107398023715415093e+03 1.338954545454545269e+03 2.055458230434782672e+04
-2.035006488549618098e+03 1.304203053435114271e+03 1.984850886641221223e+04
-2.035006488549618098e+03 1.315446183206106525e+03 1.984850886641221223e+04
-2.050660384615384373e+03 1.336894615384615236e+03 2.000118970384615386e+04
-1.989446641791044840e+03 1.307978731343283698e+03 1.940413926492537576e+04
-1.996897752808988571e+03 1.323910112359550340e+03 1.947681394382022336e+04
-1.974710000000000036e+03 1.320109999999999900e+03 1.926040490000000136e+04
-1.938806181818181813e+03 1.306819636363636391e+03 1.891021572000000015e+04
-1.890679787234042124e+03 1.284826595744680844e+03 1.844081320212765786e+04
-1.074942943548386893e+03 7.779973790322579816e+02 1.048449460282258042e+04
-1.074942943548386893e+03 7.839362903225805894e+02 1.048449460282258042e+04
-1.074942943548386893e+03 7.898752016129030835e+02 1.048449460282258042e+04
-1.094808418891170277e+03 8.105211498973304742e+02 1.067825322997946569e+04
-1.074942943548386893e+03 8.017530241935482991e+02 1.048449460282258042e+04
-1.074942943548386893e+03 8.076919354838709069e+02 1.048449460282258042e+04
-1.074942943548386893e+03 8.136308467741934010e+02 1.048449460282258042e+04
-1.074942943548386893e+03 8.195697580645161224e+02 1.048449460282258042e+04
-1.094808418891170277e+03 8.407644763860369039e+02 1.067825322997946569e+04
-1.074942943548386893e+03 8.314475806451612243e+02 1.048449460282258042e+04
-1.074942943548386893e+03 8.373864919354837184e+02 1.048449460282258042e+04
-1.074942943548386893e+03 8.433254032258064399e+02 1.048449460282258042e+04
-1.074942943548386893e+03 8.492643145161289340e+02 1.048449460282258042e+04
-1.074942943548386893e+03 8.552032258064515418e+02 1.048449460282258042e+04
-1.074942943548386893e+03 8.611421370967740359e+02 1.048449460282258042e+04
-1.074942943548386893e+03 8.670810483870967573e+02 1.048449460282258042e+04
-1.074942943548386893e+03 8.730199596774192514e+02 1.048449460282258042e+04
-1.074942943548386893e+03 8.789588709677418592e+02 1.048449460282258042e+04
-1.074942943548386893e+03 8.848977822580643533e+02 1.048449460282258042e+04
-1.099323092783505217e+03 9.110412371134020759e+02 1.072228726391752753e+04
-1.120108613445378296e+03 9.344552521008404256e+02 1.092501958613445458e+04
-1.124834810126582170e+03 9.446126582278481010e+02 1.097111671518987350e+04
-1.129601059322033962e+03 9.548561440677966630e+02 1.101760449788135702e+04
-1.136826652452025428e+03 9.672447761194028999e+02 1.108807957995735524e+04
-1.141695289079229042e+03 9.776948608137045085e+02 1.113556600214132777e+04
-1.144145278969956962e+03 9.861141630901287272e+02 1.115946206652360524e+04
-1.146605806451612807e+03 9.945696774193548890e+02 1.118346090967742020e+04
-1.156554663774403480e+03 1.009589154013015104e+03 1.128049744685466430e+04
-1.159068913043478233e+03 1.018187608695652216e+03 1.130502026739130451e+04
-1.159068913043478233e+03 1.024591304347826053e+03 1.130502026739130451e+04
-1.251576760563380276e+03 1.127110563380281747e+03 1.220729888028169080e+04
-1.217286986301370007e+03 1.102956164383561600e+03 1.187285233561643872e+04
-1.228506221198156481e+03 1.119908986175115160e+03 1.198227954608294931e+04
-1.225682068965517374e+03 1.124106206896551839e+03 1.195473407586207031e+04
-1.225682068965517374e+03 1.130877931034482799e+03 1.195473407586207031e+04
-1.222870871559633088e+03 1.135040366972477159e+03 1.192731496100917502e+04
-1.222870871559633088e+03 1.141796559633027528e+03 1.192731496100917502e+04
-1.225682068965517374e+03 1.151193103448275906e+03 1.195473407586207031e+04
-1.225682068965517374e+03 1.157964827586206866e+03 1.195473407586207031e+04
-1.234193750000000136e+03 1.172824999999999818e+03 1.203775306249999994e+04
-1.242824475524475474e+03 1.187893006993007020e+03 1.212193315384615380e+04
-1.316473333333333358e+03 1.287379999999999882e+03 1.284026993333333485e+04
-1.319731930693068989e+03 1.297857920792079085e+03 1.287205277970296993e+04
-1.323006699751861106e+03 1.308387841191067082e+03 1.290399335732009968e+04
-1.329605236907730614e+03 1.322259351620947427e+03 1.296835242643391575e+04
-1.336269924812030013e+03 1.336269924812030013e+03 1.303335669924811918e+04
-1.343001763224181332e+03 1.350421662468513887e+03 1.309901592695214094e+04
-1.346393181818181802e+03 1.361270454545454413e+03 1.313209425000000010e+04
-1.356670992366412065e+03 1.379157251908396574e+03 1.323233924427480815e+04
-1.360131887755102071e+03 1.390190051020407964e+03 1.326609521173469329e+04
-1.370621336760925487e+03 1.408483804627249356e+03 1.336840442930591234e+04
-1.377704651162790697e+03 1.423374418604651282e+03 1.343749179069767524e+04
-1.381273834196890903e+03 1.434693264248704509e+03 1.347230394559585511e+04
-1.384861558441558373e+03 1.446070909090909026e+03 1.350729694285714322e+04
-1.945882116788320900e+03 2.117893795620437686e+03 1.897923110583941525e+04
-1.953009890109889966e+03 2.136441758241758180e+03 1.904875209890109909e+04
-1.953009890109889966e+03 2.147231868131867941e+03 1.904875209890109909e+04
-1.960190073529411848e+03 2.165955882352940989e+03 1.911878427573529552e+04
-1.960190073529411848e+03 2.176785661764705765e+03 1.911878427573529552e+04
-1.974710000000000036e+03 2.203820000000000164e+03 1.926040490000000136e+04
-1.989446641791044840e+03 2.231257835820895707e+03 1.940413926492537576e+04
-1.989446641791044840e+03 2.242249253731343288e+03 1.940413926492537576e+04
-1.989446641791044840e+03 2.253240671641791323e+03 1.940413926492537576e+04
-1.982050929368029756e+03 2.255814869888476096e+03 1.933200491821561445e+04
-2.011968679245283056e+03 2.300980754716981210e+03 1.962380876603773868e+04
-2.011968679245283056e+03 2.312096603773585230e+03 1.962380876603773868e+04
-1.989446641791044840e+03 2.297206343283582555e+03 1.940413926492537576e+04
-1.931781521739130540e+03 2.241293478260869506e+03 1.884170044565217540e+04
-1.864236713286713211e+03 2.173226223776223378e+03 1.818289973076922979e+04
-5.990693258426966167e+03 7.116016853932584127e+03 5.843044183146067371e+04
-5.227173529411764321e+03 6.237952941176470631e+03 5.098342473529411654e+04
-4.936775000000000546e+03 5.918675000000000182e+03 4.815101224999999977e+04
-4.847015454545455214e+03 5.837841818181818780e+03 4.727553930000000400e+04
-4.636275652173912931e+03 5.609637391304348057e+03 4.522008106956521806e+04
-4.480434453781513184e+03 5.445831932773109656e+03 4.370007834453781834e+04
-4.443097499999999854e+03 5.424997500000000400e+03 4.333591102500000125e+04
-4.443097499999999854e+03 5.449544999999999163e+03 4.333591102500000125e+04
-4.443097499999999854e+03 5.474092499999999745e+03 4.333591102500000125e+04
-4.443097499999999854e+03 5.498640000000000327e+03 4.333591102500000125e+04
-4.443097499999999854e+03 5.523187500000000000e+03 4.333591102500000125e+04
-4.334729268292682718e+03 5.412424390243902963e+03 4.227893758536585665e+04
-4.299771774193547571e+03 5.392531451612902856e+03 4.193797841129032167e+04
-4.334729268292682718e+03 5.460321951219512812e+03 4.227893758536585665e+04
-4.370259836065572927e+03 5.529223770491802497e+03 4.262548625409835950e+04
-4.370259836065572927e+03 5.553368852459016125e+03 4.262548625409835950e+04
-4.406377685950413252e+03 5.623609090909090810e+03 4.297776299999999901e+04
-4.406377685950413252e+03 5.647953719008263761e+03 4.297776299999999901e+04
-4.265373599999999897e+03 5.490784799999999450e+03 4.160247458400000323e+04
-4.101320769230768747e+03 5.302260000000000218e+03 4.000237940769230772e+04
-4.133113953488372317e+03 5.366197674418604038e+03 4.031247537209302391e+04
-4.760461607142857247e+03 6.207010714285713220e+03 4.643133324107142835e+04
-4.596307758620689128e+03 6.018369827586206156e+03 4.483025278448275640e+04
-4.718333628318583578e+03 6.204217699115043615e+03 4.602043648672566633e+04
-4.718333628318583578e+03 6.230285840707964780e+03 4.602043648672566633e+04
-4.847015454545455214e+03 6.426981818181818198e+03 4.727553930000000400e+04
-4.936775000000000546e+03 6.573274999999999636e+03 4.815101224999999977e+04
-4.982913084112148681e+03 6.662237383177570337e+03 4.860102171028037264e+04
-5.029921698113207640e+03 6.752878301886791633e+03 4.905952191509433760e+04
-5.029921698113207640e+03 6.780667924528301228e+03 4.905952191509433760e+04
-5.029921698113207640e+03 6.808457547169809914e+03 4.905952191509433760e+04
-4.982913084112148681e+03 6.772357009345793813e+03 4.860102171028037264e+04
-4.982913084112148681e+03 6.799886915887850591e+03 4.860102171028037264e+04
-4.982913084112148681e+03 6.827416822429906460e+03 4.860102171028037264e+04
-4.982913084112148681e+03 6.882476635514018199e+03 4.860102171028037264e+04
-4.760461607142857247e+03 6.601524107142856337e+03 4.643133324107142835e+04
-1.184826000000000022e+04 1.701959999999999854e+04 1.155624294000000082e+05
-5.496615463917525631e+03 7.986794845360825093e+03 5.361143631958762853e+04
-7.913820895522388128e+03 -2.637940298507463012e+03 7.761655705970150302e+04
-7.574657142857143299e+03 -2.482804285714285925e+03 7.429013318571429409e+04
-2.761593750000000000e+03 -7.210828124999999318e+02 2.708494439062499805e+04
-2.761593750000000000e+03 -7.057406249999999091e+02 2.708494439062499805e+04
-2.705234693877550399e+03 -6.763086734693875997e+02 2.653219042346938659e+04
-2.747284974093263827e+03 -6.715585492227979785e+02 2.694460789119171022e+04
-2.747284974093263827e+03 -6.562958549222797728e+02 2.694460789119171022e+04
-2.747284974093263827e+03 -6.410331606217616809e+02 2.694460789119171022e+04
-2.761593750000000000e+03 -6.290296875000000227e+02 2.708494439062499805e+04
-2.747284974093263827e+03 -6.105077720207253833e+02 2.694460789119171022e+04
-2.747284974093263827e+03 -5.952450777202072913e+02 2.694460789119171022e+04
-2.719107692307692560e+03 -5.740338461538461843e+02 2.666825293846154091e+04
-2.691502538071065374e+03 -5.532532994923857359e+02 2.639750925380710396e+04
-2.691502538071065374e+03 -5.383005076142130747e+02 2.639750925380710396e+04
-2.691502538071065374e+03 -5.233477157360405272e+02 2.639750925380710396e+04
-2.691502538071065374e+03 -5.083949238578679797e+02 2.639750925380710396e+04
-2.677909090909090537e+03 -4.909499999999999886e+02 2.626418850000000020e+04
-2.549163461538461434e+03 -4.531846153846153697e+02 2.500148712980769415e+04
-2.421123287671232902e+03 -4.169712328767123495e+02 2.374570467123287744e+04
-2.388405405405405418e+03 -3.980675675675674938e+02 2.342481677027027035e+04
-2.356559999999999945e+03 -3.796679999999999495e+02 2.311248588000000018e+04
-2.315397379912663382e+03 -3.601729257641920867e+02 2.270877433624453988e+04
-2.275648068669527675e+03 -3.413472103004291966e+02 2.231892413304721049e+04
-2.285456896551723730e+03 -3.301215517241379303e+02 2.241512639224137820e+04
-2.227840336134453992e+03 -3.094222689075630228e+02 2.185003917226890917e+04
-2.237240506329113941e+03 -2.982987341772151808e+02 2.194223343037974701e+04
-2.246720338983050624e+03 -2.870809322033898638e+02 2.203520899576271404e+04
-2.237240506329113941e+03 -2.734405063291139300e+02 2.194223343037974701e+04
-3.606979591836734471e+03 -4.007755102040816269e+02 3.537625389795918454e+04
-3.465529411764706310e+03 -3.658058823529411825e+02 3.398894982352941588e+04
-3.443025974025973937e+03 -3.443025974025973710e+02 3.376824235714285896e+04
-3.398884615384614790e+03 -3.210057692307691468e+02 3.333531617307692068e+04
-3.398884615384614790e+03 -3.021230769230768942e+02 3.333531617307692068e+04
-3.377235668789808642e+03 -2.814363057324840725e+02 3.312298931847133645e+04
-3.377235668789808642e+03 -2.626738853503184146e+02 3.312298931847133645e+04
-3.355860759493671139e+03 -2.423677215189873664e+02 3.291335014556962415e+04
-3.334754716981132333e+03 -2.223169811320754832e+02 3.270634794339622749e+04
-3.293329192546583727e+03 -2.012590062111801217e+02 3.230005790683229861e+04
-3.233085365853658459e+03 -1.796158536585365653e+02 3.170920318902438885e+04
-3.175005988023952341e+03 -1.587502994011975943e+02 3.113957678443114128e+04
-3.194132530120481533e+03 -1.419614457831325183e+02 3.132716459638554079e+04
-3.137431952662721415e+03 -1.220112426035502864e+02 3.077106108284023503e+04
-3.137431952662721415e+03 -1.045810650887573985e+02 3.077106108284023503e+04
-3.118976470588235316e+03 -8.663823529411764923e+01 3.059005484117647211e+04
-3.118976470588235316e+03 -6.931058823529411939e+01 3.059005484117647211e+04
-3.582608108108108354e+03 -3.980675675675676217e+01 3.513722515540540917e+04
-3.582608108108108354e+03 -1.990337837837838109e+01 3.513722515540540917e+04
-3.582608108108108354e+03 0.000000000000000000e+00 3.513722515540540917e+04
-3.582608108108108354e+03 1.990337837837838109e+01 3.513722515540540917e+04
-3.582608108108108354e+03 3.980675675675676217e+01 3.513722515540540917e+04
-3.582608108108108354e+03 5.971013513513513971e+01 3.513722515540540917e+04
-3.707874125874125184e+03 8.239720279720279450e+01 3.636579946153845958e+04
-3.787328571428571649e+03 1.052035714285714363e+02 3.714506659285714704e+04
-3.814575539568344993e+03 1.271525179856114960e+02 3.741229728776978300e+04
-3.814575539568344993e+03 1.483446043165467358e+02 3.741229728776978300e+04
-3.842217391304347984e+03 1.707652173913043612e+02 3.768340089130435081e+04
-3.558563758389262148e+03 2.174677852348993383e+02 3.490140485234899825e+04
-3.273000000000000000e+03 2.182000000000000171e+02 3.210067483333333803e+04
-3.064890173410404259e+03 2.213531791907514332e+02 3.005959146242774659e+04
-3.082709302325581575e+03 2.397662790697674495e+02 3.023435652906976975e+04
-3.118976470588235316e+03 2.599147058823529051e+02 3.059005484117647211e+04
-3.029862857142857138e+03 2.693211428571428883e+02 2.971605327428571763e+04
-3.082709302325581575e+03 2.911447674418604947e+02 3.023435652906976975e+04
-3.082709302325581575e+03 3.082709302325581007e+02 3.023435652906976975e+04
-3.082709302325581575e+03 3.253970930232558203e+02 3.023435652906976975e+04
-3.082709302325581575e+03 3.425232558139534831e+02 3.023435652906976975e+04
-3.064890173410404259e+03 3.575705202312138340e+02 3.005959146242774659e+04
-3.064890173410404259e+03 3.745976878612716519e+02 3.005959146242774659e+04
-3.047275862068965125e+03 3.893741379310344541e+02 2.988683518965517214e+04
-3.012647727272727025e+03 4.016863636363636374e+02 2.954721206249999886e+04
-2.962156424581005467e+03 4.114106145251396356e+02 2.905200739106145193e+04
-2.945700000000000273e+03 4.254900000000000091e+02 2.889060735000000204e+04
-2.929425414364640801e+03 4.394138121546960747e+02 2.873099073480662992e+04
-2.929425414364640801e+03 4.556883977900552054e+02 2.873099073480662992e+04
-2.897409836065573472e+03 4.668049180327868726e+02 2.841699083606557542e+04
-2.866086486486486592e+03 4.776810810810811176e+02 2.810978012432432661e+04
-2.866086486486486592e+03 4.936037837837837969e+02 2.810978012432432661e+04
-2.835433155080213965e+03 5.040770053475935697e+02 2.780914076470588407e+04
-2.820351063829787563e+03 5.170643617021277123e+02 2.766121980319149225e+04
-2.820351063829787563e+03 5.327329787234042442e+02 2.766121980319149225e+04
-2.820351063829787563e+03 5.484015957446808898e+02 2.766121980319149225e+04
-2.805428571428571104e+03 5.610857142857142890e+02 2.751486414285714272e+04
-2.790663157894737196e+03 5.736363157894737697e+02 2.737004906842105629e+04
-2.790663157894737196e+03 5.891399999999999864e+02 2.737004906842105629e+04
-2.761593750000000000e+03 5.983453124999999773e+02 2.708494439062499805e+04
-2.790663157894737196e+03 6.201473684210526471e+02 2.737004906842105629e+04
-2.761593750000000000e+03 6.290296875000000227e+02 2.708494439062499805e+04
-2.776052356020942170e+03 6.477455497382198928e+02 2.722675038219895214e+04
-2.733123711340205773e+03 6.529128865979381544e+02 2.680571815979381427e+04
-2.719107692307692560e+03 6.646707692307693378e+02 2.666825293846154091e+04
-2.691502538071065374e+03 6.728756345177663434e+02 2.639750925380710396e+04
-2.664452261306532364e+03 6.809155778894472633e+02 2.613220765326633045e+04
-2.664452261306532364e+03 6.957180904522612082e+02 2.613220765326633045e+04
-2.611950738916256341e+03 6.965201970443349637e+02 2.561728730541872210e+04
-2.599147058823529278e+03 7.075455882352939625e+02 2.549171236764705827e+04
-2.586468292682926858e+03 7.184634146341463747e+02 2.536736255121951399e+04
-2.561478260869565020e+03 7.257521739130434071e+02 2.512226726086956478e+04
-2.512919431279620767e+03 7.259545023696682620e+02 2.464601574881516717e+04
-1.738445901639344356e+03 5.118757377049180946e+02 1.705019450163934744e+04
-1.721512987012986969e+03 5.164538961038961133e+02 1.688412117857142948e+04
-1.694012779552715756e+03 5.176150159744408938e+02 1.661440678274760648e+04
-2.227840336134453992e+03 7.054827731092436807e+02 2.185003917226890917e+04
-2.218518828451882655e+03 7.148560669456066989e+02 2.175861641422594039e+04
-2.218518828451882655e+03 7.271811715481170495e+02 2.175861641422594039e+04
-2.209275000000000091e+03 7.364249999999999545e+02 2.166795551250000062e+04
-2.191016528925619696e+03 7.546834710743801224e+02 2.148888149999999951e+04
-2.173057377049180104e+03 7.605700819672130137e+02 2.131274312704917975e+04
-2.164187755102041137e+03 7.694889795918368236e+02 2.122575233877551364e+04
-2.164187755102041137e+03 7.815122448979592491e+02 2.122575233877551364e+04
-2.138008064516128798e+03 7.839362903225805894e+02 2.096898920564516084e+04
-2.120903999999999996e+03 7.894476000000000795e+02 2.080123729200000162e+04
-1.847477351916376165e+03 7.492547038327525115e+02 1.811954467944250791e+04
-1.683257142857142753e+03 7.294114285714285870e+02 1.650891848571428636e+04
-1.683257142857142753e+03 7.387628571428572286e+02 1.650891848571428636e+04
-1.683257142857142753e+03 7.481142857142856428e+02 1.650891848571428636e+04
-1.672637223974763401e+03 7.526867507886435078e+02 1.640476127129337692e+04
-1.667377358490566166e+03 7.595830188679245794e+02 1.635317397169811375e+04
-1.656956250000000182e+03 7.640409375000000409e+02 1.625096663437500138e+04
-1.641566563467491960e+03 7.660643962848296269e+02 1.610002886377708819e+04
-1.646664596273291863e+03 7.775916149068323193e+02 1.615002895341614931e+04
-1.651794392523364422e+03 7.891906542056074159e+02 1.620034057009345815e+04
-1.631464615384615399e+03 7.885412307692307650e+02 1.600095176307692418e+04
-1.636500000000000000e+03 8.000666666666667197e+02 1.605033741666666901e+04
-1.274581730769230717e+03 6.656149038461538794e+02 1.250074356490384707e+04
-2.227840336134453992e+03 1.188181512605042144e+03 2.185003917226890917e+04
-2.227840336134453992e+03 1.200558403361344517e+03 2.185003917226890917e+04
-2.209275000000000091e+03 1.202827500000000100e+03 2.166795551250000062e+04
-2.173057377049180104e+03 1.195181557377049103e+03 2.131274312704917975e+04
