3.750000000000000000e-01 7.535714285714285587e-01 5.357142857142856984e-01 6.600000000000000000e+01 6.200000000000000000e+01 5.000000000000000000e+01
3.763440860215053196e-01 7.598566308243727141e-01 5.376344086021505042e-01 7.500000000000000000e+01 6.200000000000000000e+01 5.300000000000000000e+01
3.804347826086956208e-01 7.717391304347825942e-01 5.434782608695651884e-01 6.400000000000000000e+01 5.000000000000000000e+01 3.700000000000000000e+01
3.804347826086956208e-01 7.753623188405797118e-01 5.434782608695651884e-01 1.270000000000000000e+02 1.120000000000000000e+02 9.100000000000000000e+01
3.804347826086956208e-01 7.789855072463768293e-01 5.434782608695651884e-01 1.790000000000000000e+02 1.620000000000000000e+02 1.360000000000000000e+02
3.804347826086956208e-01 7.826086956521738358e-01 5.434782608695651884e-01 1.800000000000000000e+02 1.600000000000000000e+02 1.330000000000000000e+02
3.790613718411551814e-01 7.833935018050539600e-01 5.415162454873645448e-01 1.780000000000000000e+02 1.580000000000000000e+02 1.310000000000000000e+02
3.776978417266186883e-01 7.841726618705036067e-01 5.395683453237409832e-01 1.790000000000000000e+02 1.590000000000000000e+02 1.340000000000000000e+02
3.763440860215053196e-01 7.849462365591397539e-01 5.376344086021505042e-01 1.690000000000000000e+02 1.480000000000000000e+02 1.270000000000000000e+02
3.750000000000000000e-01 7.857142857142856984e-01 5.357142857142856984e-01 1.560000000000000000e+02 1.370000000000000000e+02 1.220000000000000000e+02
4.770642201834862095e-01 -1.009174311926605422e-01 6.880733944954128267e-01 1.820000000000000000e+02 1.660000000000000000e+02 1.500000000000000000e+02
4.748858447488584211e-01 -9.589041095890410427e-02 6.849315068493150305e-01 1.870000000000000000e+02 1.710000000000000000e+02 1.550000000000000000e+02
4.727272727272727182e-01 -9.090909090909089774e-02 6.818181818181817677e-01 1.620000000000000000e+02 1.470000000000000000e+02 1.260000000000000000e+02
4.663677130044843189e-01 -8.520179372197307643e-02 6.726457399103138446e-01 1.710000000000000000e+02 1.550000000000000000e+02 1.320000000000000000e+02
1.350649350649350655e+00 3.636363636363636465e-01 1.948051948051948035e+00 2.060000000000000000e+02 1.190000000000000000e+02 5.000000000000000000e+01
1.283950617283950546e+00 3.580246913580246715e-01 1.851851851851851860e+00 2.020000000000000000e+02 1.140000000000000000e+02 4.200000000000000000e+01
9.454545454545453254e+00 4.909090909090908283e+00 1.363636363636363491e+01 1.970000000000000000e+02 1.050000000000000000e+02 2.200000000000000000e+01
2.096774193548387177e-01 2.741935483870968082e-01 3.024193548387096864e-01 1.810000000000000000e+02 9.500000000000000000e+01 2.000000000000000000e+01
2.096774193548387177e-01 2.762096774193548154e-01 3.024193548387096864e-01 1.820000000000000000e+02 9.600000000000000000e+01 1.900000000000000000e+01
2.096774193548387177e-01 2.782258064516129337e-01 3.024193548387096864e-01 1.810000000000000000e+02 9.500000000000000000e+01 1.800000000000000000e+01
2.096774193548387177e-01 2.802419354838709964e-01 3.024193548387096864e-01 1.810000000000000000e+02 9.500000000000000000e+01 1.800000000000000000e+01
2.096774193548387177e-01 2.822580645161290591e-01 3.024193548387096864e-01 1.830000000000000000e+02 9.600000000000000000e+01 1.700000000000000000e+01
2.096774193548387177e-01 2.842741935483870663e-01 3.024193548387096864e-01 1.830000000000000000e+02 9.600000000000000000e+01 1.700000000000000000e+01
2.096774193548387177e-01 2.862903225806451846e-01 3.024193548387096864e-01 1.830000000000000000e+02 9.600000000000000000e+01 1.900000000000000000e+01
2.096774193548387177e-01 2.883064516129032473e-01 3.024193548387096864e-01 1.830000000000000000e+02 9.600000000000000000e+01 1.900000000000000000e+01
3.250000000000000000e+00 5.531250000000000000e+00 4.687500000000000000e+00 7.900000000000000000e+01 5.700000000000000000e+01 4.600000000000000000e+01
2.971428571428571530e+00 5.085714285714286298e+00 4.285714285714285587e+00 6.500000000000000000e+01 4.700000000000000000e+01 3.500000000000000000e+01
2.810810810810810523e+00 4.837837837837837718e+00 4.054054054054053502e+00 7.700000000000000000e+01 6.000000000000000000e+01 4.400000000000000000e+01
2.666666666666666075e+00 4.615384615384614975e+00 3.846153846153845812e+00 7.600000000000000000e+01 5.700000000000000000e+01 5.300000000000000000e+01
2.536585365853658125e+00 4.414634146341462895e+00 3.658536585365853355e+00 6.300000000000000000e+01 5.100000000000000000e+01 2.900000000000000000e+01
2.476190476190475831e+00 4.333333333333333037e+00 3.571428571428571175e+00 6.800000000000000000e+01 5.200000000000000000e+01 3.900000000000000000e+01
2.311111111111111338e+00 4.066666666666666430e+00 3.333333333333333481e+00 7.900000000000000000e+01 5.100000000000000000e+01 4.700000000000000000e+01
2.212765957446808596e+00 3.914893617021276473e+00 3.191489361702127603e+00 8.600000000000000000e+01 5.100000000000000000e+01 2.100000000000000000e+01
2.122448979591836427e+00 3.775510204081632182e+00 3.061224489795918213e+00 1.450000000000000000e+02 1.080000000000000000e+02 6.600000000000000000e+01
2.122448979591836427e+00 3.795918367346938993e+00 3.061224489795918213e+00 1.920000000000000000e+02 1.610000000000000000e+02 1.300000000000000000e+02
2.039215686274509665e+00 3.666666666666666519e+00 2.941176470588235059e+00 1.810000000000000000e+02 1.580000000000000000e+02 1.270000000000000000e+02
2.000000000000000000e+00 3.615384615384614975e+00 2.884615384615384581e+00 1.880000000000000000e+02 1.570000000000000000e+02 1.290000000000000000e+02
1.962264150943396235e+00 3.566037735849056478e+00 2.830188679245282835e+00 1.790000000000000000e+02 1.500000000000000000e+02 1.180000000000000000e+02
1.890909090909090873e+00 3.454545454545454142e+00 2.727272727272727071e+00 1.720000000000000000e+02 1.460000000000000000e+02 1.130000000000000000e+02
1.857142857142856984e+00 3.410714285714285587e+00 2.678571428571428381e+00 1.590000000000000000e+02 1.350000000000000000e+02 1.090000000000000000e+02
1.824561403508771829e+00 3.368421052631578316e+00 2.631578947368420796e+00 7.900000000000000000e+01 5.900000000000000000e+01 4.800000000000000000e+01
1.793103448275861656e+00 3.327586206896551158e+00 2.586206896551723755e+00 6.500000000000000000e+01 5.000000000000000000e+01 4.700000000000000000e+01
1.762711864406779405e+00 3.288135593220339103e+00 2.542372881355932090e+00 6.100000000000000000e+01 5.200000000000000000e+01 4.700000000000000000e+01
1.762711864406779405e+00 3.305084745762711496e+00 2.542372881355932090e+00 5.800000000000000000e+01 5.100000000000000000e+01 4.100000000000000000e+01
1.762711864406779405e+00 3.322033898305084776e+00 2.542372881355932090e+00 6.000000000000000000e+01 5.200000000000000000e+01 4.900000000000000000e+01
1.793103448275861656e+00 3.396551724137930606e+00 2.586206896551723755e+00 6.000000000000000000e+01 4.700000000000000000e+01 3.800000000000000000e+01
2.080000000000000071e+00 3.979999999999999982e+00 3.000000000000000000e+00 1.830000000000000000e+02 1.610000000000000000e+02 1.200000000000000000e+02
2.212765957446808596e+00 4.255319148936170137e+00 3.191489361702127603e+00 1.810000000000000000e+02 1.550000000000000000e+02 1.220000000000000000e+02
3.795620437956204185e-01 7.518248175182481452e-01 5.474452554744525523e-01 6.300000000000000000e+01 5.000000000000000000e+01 3.400000000000000000e+01
3.781818181818181190e-01 7.527272727272726893e-01 5.454545454545454142e-01 5.900000000000000000e+01 4.700000000000000000e+01 3.500000000000000000e+01
3.768115942028985588e-01 7.536231884057971175e-01 5.434782608695651884e-01 6.400000000000000000e+01 5.100000000000000000e+01 4.300000000000000000e+01
3.768115942028985588e-01 7.572463768115941241e-01 5.434782608695651884e-01 6.100000000000000000e+01 5.000000000000000000e+01 4.400000000000000000e+01
3.754512635379060881e-01 7.581227436823103627e-01 5.415162454873645448e-01 6.400000000000000000e+01 5.500000000000000000e+01 4.800000000000000000e+01
3.727598566308243377e-01 7.562724014336917877e-01 5.376344086021505042e-01 7.000000000000000000e+01 6.300000000000000000e+01 5.500000000000000000e+01
3.754512635379060881e-01 7.653429602888085492e-01 5.415162454873645448e-01 6.500000000000000000e+01 5.200000000000000000e+01 3.500000000000000000e+01
3.809523809523809312e-01 7.802197802197801124e-01 5.494505494505493859e-01 1.240000000000000000e+02 1.090000000000000000e+02 8.800000000000000000e+01
3.795620437956204185e-01 7.810218978102189125e-01 5.474452554744525523e-01 1.840000000000000000e+02 1.660000000000000000e+02 1.420000000000000000e+02
3.768115942028985588e-01 7.789855072463768293e-01 5.434782608695651884e-01 1.800000000000000000e+02 1.600000000000000000e+02 1.350000000000000000e+02
3.754512635379060881e-01 7.797833935018049223e-01 5.415162454873645448e-01 1.780000000000000000e+02 1.570000000000000000e+02 1.300000000000000000e+02
3.741007194244604372e-01 7.805755395683452447e-01 5.395683453237409832e-01 1.750000000000000000e+02 1.550000000000000000e+02 1.310000000000000000e+02
3.727598566308243377e-01 7.813620071684588275e-01 5.376344086021505042e-01 1.730000000000000000e+02 1.550000000000000000e+02 1.350000000000000000e+02
3.727598566308243377e-01 7.849462365591397539e-01 5.376344086021505042e-01 1.580000000000000000e+02 1.390000000000000000e+02 1.220000000000000000e+02
3.714285714285714413e-01 7.857142857142856984e-01 5.357142857142856984e-01 1.510000000000000000e+02 1.310000000000000000e+02 1.200000000000000000e+02
3.687943262411347289e-01 7.836879432624113129e-01 5.319148936170212671e-01 9.000000000000000000e+01 7.300000000000000000e+01 6.500000000000000000e+01
4.813084112149532690e-01 -1.308411214953270896e-01 7.009345794392523032e-01 6.000000000000000000e+01 4.100000000000000000e+01 2.400000000000000000e+01
4.703196347031963209e-01 -1.095890410958904049e-01 6.849315068493150305e-01 1.650000000000000000e+02 1.480000000000000000e+02 1.280000000000000000e+02
4.639639639639638879e-01 -1.036036036036035723e-01 6.756756756756755466e-01 1.770000000000000000e+02 1.600000000000000000e+02 1.420000000000000000e+02
4.681818181818181435e-01 -9.999999999999999167e-02 6.818181818181817677e-01 1.700000000000000000e+02 1.550000000000000000e+02 1.360000000000000000e+02
4.660633484162894913e-01 -9.502262443438913575e-02 6.787330316742080649e-01 1.830000000000000000e+02 1.670000000000000000e+02 1.510000000000000000e+02
4.639639639639638879e-01 -9.009009009009007196e-02 6.756756756756755466e-01 1.630000000000000000e+02 1.480000000000000000e+02 1.270000000000000000e+02
4.577777777777777279e-01 -8.444444444444444697e-02 6.666666666666666297e-01 1.650000000000000000e+02 1.500000000000000000e+02 1.270000000000000000e+02
4.497816593886462266e-01 -7.860262008733624739e-02 6.550218340611353440e-01 1.770000000000000000e+02 1.630000000000000000e+02 1.370000000000000000e+02
1.355263157894736725e+00 3.684210526315789269e-01 1.973684210526315708e+00 2.040000000000000000e+02 1.100000000000000000e+02 3.800000000000000000e+01
1.256097560975609762e+00 3.536585365853658347e-01 1.829268292682926678e+00 2.010000000000000000e+02 1.190000000000000000e+02 4.300000000000000000e+01
2.798913043478261087e-01 2.581521739130434590e-01 4.076086956521738913e-01 1.860000000000000000e+02 9.100000000000000000e+01 1.000000000000000000e+00
2.806539509536784549e-01 2.615803814713896225e-01 4.087193460490463059e-01 1.620000000000000000e+02 8.200000000000000000e+01 1.900000000000000000e+01
2.791327913279132433e-01 2.628726287262872496e-01 4.065040650406503975e-01 9.800000000000000000e+01 6.600000000000000000e+01 5.100000000000000000e+01
2.076612903225806273e-01 2.762096774193548154e-01 3.024193548387096864e-01 1.810000000000000000e+02 9.600000000000000000e+01 1.500000000000000000e+01
2.076612903225806273e-01 2.782258064516129337e-01 3.024193548387096864e-01 1.810000000000000000e+02 9.600000000000000000e+01 1.500000000000000000e+01
2.076612903225806273e-01 2.802419354838709964e-01 3.024193548387096864e-01 1.810000000000000000e+02 9.600000000000000000e+01 1.500000000000000000e+01
2.076612903225806273e-01 2.822580645161290591e-01 3.024193548387096864e-01 1.820000000000000000e+02 9.600000000000000000e+01 1.300000000000000000e+01
2.076612903225806273e-01 2.842741935483870663e-01 3.024193548387096864e-01 1.820000000000000000e+02 9.500000000000000000e+01 1.500000000000000000e+01
2.076612903225806273e-01 2.862903225806451846e-01 3.024193548387096864e-01 1.820000000000000000e+02 9.500000000000000000e+01 1.500000000000000000e+01
2.076612903225806273e-01 2.883064516129032473e-01 3.024193548387096864e-01 1.820000000000000000e+02 9.500000000000000000e+01 1.500000000000000000e+01
2.076612903225806273e-01 2.903225806451612545e-01 3.024193548387096864e-01 1.820000000000000000e+02 9.500000000000000000e+01 1.500000000000000000e+01
2.076612903225806273e-01 2.923387096774193727e-01 3.024193548387096864e-01 1.810000000000000000e+02 9.400000000000000000e+01 1.400000000000000000e+01
3.218750000000000000e+00 5.531250000000000000e+00 4.687500000000000000e+00 6.300000000000000000e+01 4.400000000000000000e+01 3.000000000000000000e+01
2.942857142857142616e+00 5.085714285714286298e+00 4.285714285714285587e+00 6.600000000000000000e+01 5.000000000000000000e+01 3.700000000000000000e+01
2.783783783783783328e+00 4.837837837837837718e+00 4.054054054054053502e+00 7.300000000000000000e+01 5.700000000000000000e+01 4.200000000000000000e+01
2.641025641025640969e+00 4.615384615384614975e+00 3.846153846153845812e+00 6.400000000000000000e+01 5.200000000000000000e+01 4.000000000000000000e+01
2.575000000000000178e+00 4.525000000000000355e+00 3.750000000000000000e+00 7.500000000000000000e+01 6.200000000000000000e+01 4.600000000000000000e+01
2.512195121951219523e+00 4.439024390243901941e+00 3.658536585365853355e+00 8.000000000000000000e+01 6.100000000000000000e+01 4.700000000000000000e+01
2.340909090909090828e+00 4.159090909090908283e+00 3.409090909090908728e+00 7.500000000000000000e+01 4.800000000000000000e+01 2.700000000000000000e+01
2.288888888888889195e+00 4.088888888888889461e+00 3.333333333333333481e+00 1.380000000000000000e+02 1.050000000000000000e+02 7.200000000000000000e+01
2.239130434782608869e+00 4.021739130434782261e+00 3.260869565217391131e+00 1.900000000000000000e+02 1.550000000000000000e+02 1.230000000000000000e+02
2.239130434782608869e+00 4.043478260869565410e+00 3.260869565217391131e+00 1.830000000000000000e+02 1.510000000000000000e+02 1.260000000000000000e+02
2.191489361702127603e+00 3.978723404255319451e+00 3.191489361702127603e+00 1.860000000000000000e+02 1.590000000000000000e+02 1.290000000000000000e+02
2.145833333333333037e+00 3.916666666666666075e+00 3.124999999999999556e+00 1.850000000000000000e+02 1.560000000000000000e+02 1.240000000000000000e+02
2.102040816326530503e+00 3.857142857142857206e+00 3.061224489795918213e+00 1.750000000000000000e+02 1.480000000000000000e+02 1.190000000000000000e+02
1.943396226415094352e+00 3.584905660377357695e+00 2.830188679245282835e+00 1.580000000000000000e+02 1.330000000000000000e+02 1.110000000000000000e+02
1.907407407407407218e+00 3.537037037037036757e+00 2.777777777777777679e+00 8.100000000000000000e+01 6.000000000000000000e+01 4.300000000000000000e+01
3.800738007380073391e-01 7.601476014760146782e-01 5.535055350553504949e-01 6.200000000000000000e+01 5.000000000000000000e+01 3.600000000000000000e+01
3.786764705882352811e-01 7.610294117647058432e-01 5.514705882352940458e-01 5.600000000000000000e+01 4.800000000000000000e+01 3.700000000000000000e+01
3.772893772893772257e-01 7.619047619047618625e-01 5.494505494505493859e-01 6.700000000000000000e+01 5.700000000000000000e+01 4.800000000000000000e+01
3.772893772893772257e-01 7.655677655677654014e-01 5.494505494505493859e-01 6.800000000000000000e+01 5.500000000000000000e+01 4.700000000000000000e+01
3.745454545454545148e-01 7.636363636363635576e-01 5.454545454545454142e-01 6.800000000000000000e+01 5.800000000000000000e+01 4.800000000000000000e+01
3.731884057971013857e-01 7.644927536231883591e-01 5.434782608695651884e-01 6.600000000000000000e+01 5.600000000000000000e+01 4.400000000000000000e+01
3.759124087591240726e-01 7.737226277372263317e-01 5.474452554744525523e-01 1.210000000000000000e+02 1.060000000000000000e+02 8.500000000000000000e+01
3.814814814814814770e-01 7.888888888888889728e-01 5.555555555555555802e-01 1.780000000000000000e+02 1.620000000000000000e+02 1.390000000000000000e+02
3.772893772893772257e-01 7.838827838827837624e-01 5.494505494505493859e-01 1.750000000000000000e+02 1.580000000000000000e+02 1.320000000000000000e+02
3.731884057971013857e-01 7.789855072463768293e-01 5.434782608695651884e-01 1.840000000000000000e+02 1.640000000000000000e+02 1.370000000000000000e+02
3.718411552346569948e-01 7.797833935018049223e-01 5.415162454873645448e-01 1.700000000000000000e+02 1.480000000000000000e+02 1.240000000000000000e+02
3.705035971223021307e-01 7.805755395683452447e-01 5.395683453237409832e-01 1.680000000000000000e+02 1.480000000000000000e+02 1.240000000000000000e+02
3.691756272401433558e-01 7.813620071684588275e-01 5.376344086021505042e-01 1.620000000000000000e+02 1.440000000000000000e+02 1.240000000000000000e+02
3.678571428571428270e-01 7.821428571428571397e-01 5.357142857142856984e-01 1.520000000000000000e+02 1.350000000000000000e+02 1.190000000000000000e+02
3.665480427046263201e-01 7.829181494661920926e-01 5.338078291814946086e-01 9.300000000000000000e+01 7.600000000000000000e+01 6.800000000000000000e+01
3.626760563380281854e-01 7.781690140845070047e-01 5.281690140845070047e-01 6.200000000000000000e+01 4.800000000000000000e+01 3.500000000000000000e+01
3.564013840830449475e-01 7.681660899653979246e-01 5.190311418685120692e-01 6.100000000000000000e+01 4.800000000000000000e+01 3.100000000000000000e+01
6.580645161290322731e-01 -4.064516129032257896e-01 9.677419354838709964e-01 5.200000000000000000e+01 4.500000000000000000e+01 3.700000000000000000e+01
6.257668711656441118e-01 -3.803680981595091715e-01 9.202453987730060403e-01 9.300000000000000000e+01 8.500000000000000000e+01 7.400000000000000000e+01
6.144578313253011848e-01 -3.674698795180722510e-01 9.036144578313252129e-01 9.800000000000000000e+01 8.600000000000000000e+01 7.000000000000000000e+01
4.657534246575341652e-01 -2.146118721461187373e-01 6.849315068493150305e-01 1.640000000000000000e+02 1.510000000000000000e+02 1.340000000000000000e+02
4.615384615384615086e-01 -1.040723981900452400e-01 6.787330316742080649e-01 1.720000000000000000e+02 1.550000000000000000e+02 1.350000000000000000e+02
4.636363636363636243e-01 -9.999999999999999167e-02 6.818181818181817677e-01 1.840000000000000000e+02 1.670000000000000000e+02 1.470000000000000000e+02
4.615384615384615086e-01 -9.502262443438913575e-02 6.787330316742080649e-01 1.890000000000000000e+02 1.720000000000000000e+02 1.540000000000000000e+02
4.594594594594593739e-01 -9.009009009009007196e-02 6.756756756756755466e-01 1.500000000000000000e+02 1.350000000000000000e+02 1.160000000000000000e+02
4.513274336283185084e-01 -8.407079646017698304e-02 6.637168141592919568e-01 1.780000000000000000e+02 1.630000000000000000e+02 1.420000000000000000e+02
4.434782608695652106e-01 -7.826086956521739746e-02 6.521739130434782705e-01 1.870000000000000000e+02 1.720000000000000000e+02 1.490000000000000000e+02
1.360000000000000098e+00 3.599999999999999867e-01 2.000000000000000000e+00 1.970000000000000000e+02 1.180000000000000000e+02 4.900000000000000000e+01
1.259259259259259300e+00 3.456790123456790487e-01 1.851851851851851860e+00 2.110000000000000000e+02 1.210000000000000000e+02 4.500000000000000000e+01
1.199999999999999956e+00 3.411764705882352477e-01 1.764705882352941124e+00 2.040000000000000000e+02 1.210000000000000000e+02 4.500000000000000000e+01
1.159090909090908950e+00 3.409090909090908839e-01 1.704545454545454364e+00 2.050000000000000000e+02 1.210000000000000000e+02 4.800000000000000000e+01
1.172413793103448176e+00 3.563218390804597235e-01 1.724137931034482651e+00 2.060000000000000000e+02 1.150000000000000000e+02 4.400000000000000000e+01
1.172413793103448176e+00 3.678160919540229834e-01 1.724137931034482651e+00 1.980000000000000000e+02 1.120000000000000000e+02 3.900000000000000000e+01
1.172413793103448176e+00 3.793103448275861878e-01 1.724137931034482651e+00 2.000000000000000000e+02 1.210000000000000000e+02 4.400000000000000000e+01
1.133333333333333570e+01 6.222222222222222321e+00 1.666666666666666785e+01 1.980000000000000000e+02 1.110000000000000000e+02 3.400000000000000000e+01
2.056451612903225923e-01 2.782258064516129337e-01 3.024193548387096864e-01 1.850000000000000000e+02 9.900000000000000000e+01 2.200000000000000000e+01
2.056451612903225923e-01 2.802419354838709964e-01 3.024193548387096864e-01 1.860000000000000000e+02 1.000000000000000000e+02 2.300000000000000000e+01
2.056451612903225923e-01 2.822580645161290591e-01 3.024193548387096864e-01 1.870000000000000000e+02 1.000000000000000000e+02 2.100000000000000000e+01
2.056451612903225923e-01 2.842741935483870663e-01 3.024193548387096864e-01 1.870000000000000000e+02 1.000000000000000000e+02 2.100000000000000000e+01
2.056451612903225923e-01 2.862903225806451846e-01 3.024193548387096864e-01 1.860000000000000000e+02 9.900000000000000000e+01 2.200000000000000000e+01
2.056451612903225923e-01 2.883064516129032473e-01 3.024193548387096864e-01 1.860000000000000000e+02 9.900000000000000000e+01 2.200000000000000000e+01
2.056451612903225923e-01 2.903225806451612545e-01 3.024193548387096864e-01 1.860000000000000000e+02 9.900000000000000000e+01 2.200000000000000000e+01
2.056451612903225923e-01 2.923387096774193727e-01 3.024193548387096864e-01 1.850000000000000000e+02 9.800000000000000000e+01 2.100000000000000000e+01
2.999999999999999556e+00 5.117647058823528106e+00 4.411764705882352366e+00 1.680000000000000000e+02 1.410000000000000000e+02 1.200000000000000000e+02
2.615384615384614975e+00 4.487179487179486337e+00 3.846153846153845812e+00 9.400000000000000000e+01 7.100000000000000000e+01 5.500000000000000000e+01
2.914285714285714146e+00 5.057142857142856940e+00 4.285714285714285587e+00 7.300000000000000000e+01 5.700000000000000000e+01 4.100000000000000000e+01
2.756756756756756133e+00 4.810810810810810523e+00 4.054054054054053502e+00 6.900000000000000000e+01 5.600000000000000000e+01 4.000000000000000000e+01
2.756756756756756133e+00 4.837837837837837718e+00 4.054054054054053502e+00 6.800000000000000000e+01 5.600000000000000000e+01 4.400000000000000000e+01
2.684210526315789380e+00 4.736842105263157521e+00 3.947368421052631415e+00 6.600000000000000000e+01 5.800000000000000000e+01 4.500000000000000000e+01
2.549999999999999822e+00 4.525000000000000355e+00 3.750000000000000000e+00 7.200000000000000000e+01 5.400000000000000000e+01 5.000000000000000000e+01
2.549999999999999822e+00 4.549999999999999822e+00 3.750000000000000000e+00 7.000000000000000000e+01 4.400000000000000000e+01 2.700000000000000000e+01
2.428571428571428381e+00 4.357142857142856762e+00 3.571428571428571175e+00 1.210000000000000000e+02 9.300000000000000000e+01 5.400000000000000000e+01
2.372093023255813726e+00 4.279069767441860961e+00 3.488372093023255793e+00 1.770000000000000000e+02 1.480000000000000000e+02 1.140000000000000000e+02
2.372093023255813726e+00 4.302325581395349374e+00 3.488372093023255793e+00 1.760000000000000000e+02 1.450000000000000000e+02 1.240000000000000000e+02
2.372093023255813726e+00 4.325581395348837788e+00 3.488372093023255793e+00 1.890000000000000000e+02 1.570000000000000000e+02 1.340000000000000000e+02
2.318181818181817899e+00 4.249999999999999112e+00 3.409090909090908728e+00 1.840000000000000000e+02 1.510000000000000000e+02 1.200000000000000000e+02
2.318181818181817899e+00 4.272727272727272485e+00 3.409090909090908728e+00 1.820000000000000000e+02 1.530000000000000000e+02 1.190000000000000000e+02
2.318181818181817899e+00 4.295454545454544970e+00 3.409090909090908728e+00 1.550000000000000000e+02 1.280000000000000000e+02 1.070000000000000000e+02
2.217391304347825720e+00 4.130434782608695343e+00 3.260869565217391131e+00 8.800000000000000000e+01 6.800000000000000000e+01 5.900000000000000000e+01
3.820224719101122934e-01 7.640449438202245869e-01 5.617977528089886929e-01 7.900000000000000000e+01 5.700000000000000000e+01 4.400000000000000000e+01
3.805970149253731227e-01 7.649253731343282903e-01 5.597014925373133831e-01 6.000000000000000000e+01 4.400000000000000000e+01 3.100000000000000000e+01
3.791821561338289404e-01 7.657992565055761203e-01 5.576208178438660790e-01 6.400000000000000000e+01 5.500000000000000000e+01 4.600000000000000000e+01
3.777777777777778234e-01 7.666666666666667185e-01 5.555555555555555802e-01 6.500000000000000000e+01 6.100000000000000000e+01 5.200000000000000000e+01
3.777777777777778234e-01 7.703703703703703720e-01 5.555555555555555802e-01 6.200000000000000000e+01 5.300000000000000000e+01 4.600000000000000000e+01
3.777777777777778234e-01 7.740740740740741366e-01 5.555555555555555802e-01 6.900000000000000000e+01 5.700000000000000000e+01 4.500000000000000000e+01
3.763837638376383299e-01 7.749077490774906041e-01 5.535055350553504949e-01 7.600000000000000000e+01 6.000000000000000000e+01 4.400000000000000000e+01
3.777777777777778234e-01 7.814814814814815547e-01 5.555555555555555802e-01 1.080000000000000000e+02 9.300000000000000000e+01 7.200000000000000000e+01
3.777777777777778234e-01 7.851851851851852082e-01 5.555555555555555802e-01 1.800000000000000000e+02 1.620000000000000000e+02 1.380000000000000000e+02
3.791821561338289404e-01 7.918215613382898477e-01 5.576208178438660790e-01 1.820000000000000000e+02 1.650000000000000000e+02 1.390000000000000000e+02
3.749999999999999445e-01 7.867647058823528106e-01 5.514705882352940458e-01 1.780000000000000000e+02 1.580000000000000000e+02 1.330000000000000000e+02
3.709090909090909105e-01 7.818181818181817455e-01 5.454545454545454142e-01 1.650000000000000000e+02 1.430000000000000000e+02 1.190000000000000000e+02
3.695652173913043237e-01 7.826086956521738358e-01 5.434782608695651884e-01 1.680000000000000000e+02 1.480000000000000000e+02 1.240000000000000000e+02
3.669064748201438797e-01 7.805755395683452447e-01 5.395683453237409832e-01 1.690000000000000000e+02 1.480000000000000000e+02 1.270000000000000000e+02
3.655913978494623739e-01 7.813620071684588275e-01 5.376344086021505042e-01 1.440000000000000000e+02 1.270000000000000000e+02 1.090000000000000000e+02
3.642857142857142683e-01 7.821428571428571397e-01 5.357142857142856984e-01 9.800000000000000000e+01 8.000000000000000000e+01 6.600000000000000000e+01
3.617021276595744350e-01 7.801418439716312214e-01 5.319148936170212671e-01 5.900000000000000000e+01 4.900000000000000000e+01 3.700000000000000000e+01
3.591549295774647543e-01 7.781690140845070047e-01 5.281690140845070047e-01 6.000000000000000000e+01 4.900000000000000000e+01 3.100000000000000000e+01
3.517241379310345195e-01 7.655172413793103203e-01 5.172413793103448620e-01 7.000000000000000000e+01 5.500000000000000000e+01 3.600000000000000000e+01
6.474358974358974672e-01 -4.038461538461537992e-01 9.615384615384614531e-01 2.700000000000000000e+01 2.400000000000000000e+01 1.900000000000000000e+01
6.234567901234567833e-01 -3.827160493827160281e-01 9.259259259259259300e-01 6.400000000000000000e+01 5.700000000000000000e+01 4.900000000000000000e+01
6.084337349397589412e-01 -3.674698795180722510e-01 9.036144578313252129e-01 1.010000000000000000e+02 8.900000000000000000e+01 7.500000000000000000e+01
2.885714285714285898e-01 -1.514285714285714124e-01 4.285714285714285476e-01 8.100000000000000000e+01 6.400000000000000000e+01 4.800000000000000000e+01
4.654377880184331073e-01 -2.211981566820276079e-01 6.912442396313362991e-01 1.750000000000000000e+02 1.540000000000000000e+02 1.330000000000000000e+02
4.590909090909090495e-01 -2.136363636363635965e-01 6.818181818181817677e-01 1.650000000000000000e+02 1.470000000000000000e+02 1.270000000000000000e+02
4.590909090909090495e-01 -2.045454545454545303e-01 6.818181818181817677e-01 1.070000000000000000e+02 9.200000000000000000e+01 7.300000000000000000e+01
4.611872146118721205e-01 -1.004566210045662045e-01 6.849315068493150305e-01 1.960000000000000000e+02 1.800000000000000000e+02 1.570000000000000000e+02
4.590909090909090495e-01 -9.545454545454544470e-02 6.818181818181817677e-01 1.930000000000000000e+02 1.750000000000000000e+02 1.530000000000000000e+02
4.570135746606334148e-01 -9.049773755656106977e-02 6.787330316742080649e-01 1.610000000000000000e+02 1.480000000000000000e+02 1.290000000000000000e+02
4.488888888888888373e-01 -8.444444444444444697e-02 6.666666666666666297e-01 1.930000000000000000e+02 1.810000000000000000e+02 1.590000000000000000e+02
4.391304347826087695e-01 -7.826086956521739746e-02 6.521739130434782705e-01 2.070000000000000000e+02 1.950000000000000000e+02 1.710000000000000000e+02
1.174418604651162656e+00 3.255813953488372325e-01 1.744186046511627897e+00 1.870000000000000000e+02 1.190000000000000000e+02 4.800000000000000000e+01
1.134831460674157189e+00 3.258426966292135019e-01 1.685393258426966190e+00 2.020000000000000000e+02 1.150000000000000000e+02 4.600000000000000000e+01
1.109890109890109944e+00 3.296703296703296648e-01 1.648351648351648491e+00 2.080000000000000000e+02 1.110000000000000000e+02 4.000000000000000000e+01
2.036290322580645296e-01 2.782258064516129337e-01 3.024193548387096864e-01 8.500000000000000000e+01 5.400000000000000000e+01 7.200000000000000000e+01
2.036290322580645296e-01 2.802419354838709964e-01 3.024193548387096864e-01 8.600000000000000000e+01 5.500000000000000000e+01 7.300000000000000000e+01
2.036290322580645296e-01 2.822580645161290591e-01 3.024193548387096864e-01 8.600000000000000000e+01 5.500000000000000000e+01 7.300000000000000000e+01
2.036290322580645296e-01 2.842741935483870663e-01 3.024193548387096864e-01 8.600000000000000000e+01 5.500000000000000000e+01 7.300000000000000000e+01
2.036290322580645296e-01 2.862903225806451846e-01 3.024193548387096864e-01 8.600000000000000000e+01 5.500000000000000000e+01 7.300000000000000000e+01
2.036290322580645296e-01 2.883064516129032473e-01 3.024193548387096864e-01 8.500000000000000000e+01 5.400000000000000000e+01 7.200000000000000000e+01
2.036290322580645296e-01 2.903225806451612545e-01 3.024193548387096864e-01 8.500000000000000000e+01 5.400000000000000000e+01 7.200000000000000000e+01
3.060606060606060552e+00 5.272727272727272485e+00 4.545454545454544970e+00 1.100000000000000000e+02 8.600000000000000000e+01 7.400000000000000000e+01
2.729729729729729382e+00 4.729729729729728938e+00 4.054054054054053502e+00 6.200000000000000000e+01 4.200000000000000000e+01 3.300000000000000000e+01
2.885714285714285676e+00 5.028571428571428470e+00 4.285714285714285587e+00 6.600000000000000000e+01 5.000000000000000000e+01 3.500000000000000000e+01
2.885714285714285676e+00 5.057142857142856940e+00 4.285714285714285587e+00 7.200000000000000000e+01 5.900000000000000000e+01 4.200000000000000000e+01
2.805555555555555802e+00 4.944444444444444642e+00 4.166666666666666963e+00 7.000000000000000000e+01 5.800000000000000000e+01 4.400000000000000000e+01
2.729729729729729382e+00 4.837837837837837718e+00 4.054054054054053502e+00 6.600000000000000000e+01 5.300000000000000000e+01 4.400000000000000000e+01
2.657894736842105310e+00 4.736842105263157521e+00 3.947368421052631415e+00 7.000000000000000000e+01 6.600000000000000000e+01 5.700000000000000000e+01
2.589743589743589869e+00 4.641025641025640525e+00 3.846153846153845812e+00 4.700000000000000000e+01 2.900000000000000000e+01 2.700000000000000000e+01
2.524999999999999911e+00 4.549999999999999822e+00 3.750000000000000000e+00 9.000000000000000000e+01 6.300000000000000000e+01 3.600000000000000000e+01
2.524999999999999911e+00 4.575000000000000178e+00 3.750000000000000000e+00 1.810000000000000000e+02 1.520000000000000000e+02 1.080000000000000000e+02
2.463414634146341431e+00 4.487804878048780033e+00 3.658536585365853355e+00 1.750000000000000000e+02 1.480000000000000000e+02 1.180000000000000000e+02
2.463414634146341431e+00 4.512195121951219079e+00 3.658536585365853355e+00 1.780000000000000000e+02 1.520000000000000000e+02 1.290000000000000000e+02
2.463414634146341431e+00 4.536585365853658125e+00 3.658536585365853355e+00 1.770000000000000000e+02 1.480000000000000000e+02 1.160000000000000000e+02
2.404761904761904656e+00 4.452380952380951662e+00 3.571428571428571175e+00 1.860000000000000000e+02 1.510000000000000000e+02 1.230000000000000000e+02
3.825757575757575690e-01 7.689393939393938116e-01 5.681818181818181213e-01 9.300000000000000000e+01 6.900000000000000000e+01 5.900000000000000000e+01
3.825757575757575690e-01 7.727272727272725961e-01 5.681818181818181213e-01 6.300000000000000000e+01 4.500000000000000000e+01 3.500000000000000000e+01
3.811320754716981396e-01 7.735849056603772977e-01 5.660377358490565891e-01 5.800000000000000000e+01 4.500000000000000000e+01 3.600000000000000000e+01
3.796992481203007586e-01 7.744360902255639223e-01 5.639097744360902498e-01 6.800000000000000000e+01 6.400000000000000000e+01 5.500000000000000000e+01
3.782771535580524147e-01 7.752808988764043896e-01 5.617977528089886929e-01 6.900000000000000000e+01 6.400000000000000000e+01 5.800000000000000000e+01
3.782771535580524147e-01 7.790262172284643238e-01 5.617977528089886929e-01 6.700000000000000000e+01 5.800000000000000000e+01 4.900000000000000000e+01
3.782771535580524147e-01 7.827715355805242581e-01 5.617977528089886929e-01 7.300000000000000000e+01 6.000000000000000000e+01 4.400000000000000000e+01
3.782771535580524147e-01 7.865168539325841923e-01 5.617977528089886929e-01 1.010000000000000000e+02 8.300000000000000000e+01 6.100000000000000000e+01
3.782771535580524147e-01 7.902621722846441266e-01 5.617977528089886929e-01 1.730000000000000000e+02 1.530000000000000000e+02 1.280000000000000000e+02
3.768656716417910224e-01 7.910447761194028260e-01 5.597014925373133831e-01 1.870000000000000000e+02 1.670000000000000000e+02 1.400000000000000000e+02
3.768656716417910224e-01 7.947761194029849818e-01 5.597014925373133831e-01 1.760000000000000000e+02 1.560000000000000000e+02 1.290000000000000000e+02
3.713235294117646634e-01 7.867647058823528106e-01 5.514705882352940458e-01 1.720000000000000000e+02 1.510000000000000000e+02 1.240000000000000000e+02
3.672727272727272507e-01 7.818181818181817455e-01 5.454545454545454142e-01 1.710000000000000000e+02 1.490000000000000000e+02 1.250000000000000000e+02
3.646209386281588083e-01 7.797833935018049223e-01 5.415162454873645448e-01 1.620000000000000000e+02 1.410000000000000000e+02 1.200000000000000000e+02
3.633093525179855732e-01 7.805755395683452447e-01 5.395683453237409832e-01 1.470000000000000000e+02 1.280000000000000000e+02 1.110000000000000000e+02
3.620071684587813365e-01 7.813620071684588275e-01 5.376344086021505042e-01 1.150000000000000000e+02 9.800000000000000000e+01 8.200000000000000000e+01
3.594306049822063587e-01 7.793594306049821396e-01 5.338078291814946086e-01 6.100000000000000000e+01 4.500000000000000000e+01 3.200000000000000000e+01
3.581560283687942881e-01 7.801418439716312214e-01 5.319148936170212671e-01 6.100000000000000000e+01 5.300000000000000000e+01 3.200000000000000000e+01
3.543859649122806932e-01 7.754385964912280382e-01 5.263157894736841813e-01 7.000000000000000000e+01 5.800000000000000000e+01 4.200000000000000000e+01
3.494809688581314577e-01 7.681660899653979246e-01 5.190311418685120692e-01 6.700000000000000000e+01 5.000000000000000000e+01 4.000000000000000000e+01
6.451612903225807383e-01 -4.129032258064516125e-01 9.677419354838709964e-01 6.300000000000000000e+01 5.000000000000000000e+01 4.100000000000000000e+01
6.329113924050633333e-01 -3.987341772151898334e-01 9.493670886075948889e-01 3.200000000000000000e+01 2.700000000000000000e+01 2.300000000000000000e+01
6.134969325153373232e-01 -3.803680981595091715e-01 9.202453987730060403e-01 3.200000000000000000e+01 2.500000000000000000e+01 1.900000000000000000e+01
6.024096385542168086e-01 -3.674698795180722510e-01 9.036144578313252129e-01 7.400000000000000000e+01 6.400000000000000000e+01 5.400000000000000000e+01
2.890173410404623944e-01 -1.560693641618497163e-01 4.335260115606936471e-01 8.900000000000000000e+01 7.300000000000000000e+01 5.700000000000000000e+01
2.840909090909090606e-01 -1.505681818181817955e-01 4.261363636363635909e-01 7.300000000000000000e+01 5.700000000000000000e+01 4.200000000000000000e+01
2.808988764044944020e-01 -1.460674157303370746e-01 4.213483146067415475e-01 8.200000000000000000e+01 6.100000000000000000e+01 4.200000000000000000e+01
4.587155963302752548e-01 -2.201834862385320946e-01 6.880733944954128267e-01 1.180000000000000000e+02 9.300000000000000000e+01 7.100000000000000000e+01
4.504504504504503459e-01 -2.117117117117116587e-01 6.756756756756755466e-01 1.080000000000000000e+02 8.600000000000000000e+01 6.300000000000000000e+01
4.484304932735425631e-01 -2.017937219730941423e-01 6.726457399103138446e-01 1.200000000000000000e+02 1.030000000000000000e+02 8.300000000000000000e+01
6.711409395973153558e-01 -2.617449664429529754e-01 1.006711409395973034e+00 9.600000000000000000e+01 8.000000000000000000e+01 5.700000000000000000e+01
6.666666666666666297e-01 -2.533333333333333548e-01 1.000000000000000000e+00 9.000000000000000000e+01 7.000000000000000000e+01 4.600000000000000000e+01
1.123595505617977608e+00 3.258426966292135019e-01 1.685393258426966190e+00 1.840000000000000000e+02 1.120000000000000000e+02 5.400000000000000000e+01
1.086956521739130377e+00 3.260869565217391353e-01 1.630434782608695565e+00 2.110000000000000000e+02 1.190000000000000000e+02 5.200000000000000000e+01
2.016129032258064668e-01 2.802419354838709964e-01 3.024193548387096864e-01 3.500000000000000000e+01 2.500000000000000000e+01 8.600000000000000000e+01
2.016129032258064668e-01 2.822580645161290591e-01 3.024193548387096864e-01 3.500000000000000000e+01 2.500000000000000000e+01 8.500000000000000000e+01
2.016129032258064668e-01 2.842741935483870663e-01 3.024193548387096864e-01 3.500000000000000000e+01 2.500000000000000000e+01 8.500000000000000000e+01
2.016129032258064668e-01 2.862903225806451846e-01 3.024193548387096864e-01 3.500000000000000000e+01 2.500000000000000000e+01 8.500000000000000000e+01
2.016129032258064668e-01 2.883064516129032473e-01 3.024193548387096864e-01 3.400000000000000000e+01 2.400000000000000000e+01 8.400000000000000000e+01
2.016129032258064668e-01 2.903225806451612545e-01 3.024193548387096864e-01 3.300000000000000000e+01 2.300000000000000000e+01 8.300000000000000000e+01
2.793296089385474690e-01 4.636871508379887818e-01 4.189944134078211757e-01 6.500000000000000000e+01 5.100000000000000000e+01 4.000000000000000000e+01
3.125000000000000000e+00 5.437500000000000000e+00 4.687500000000000000e+00 6.100000000000000000e+01 4.100000000000000000e+01 3.200000000000000000e+01
2.777777777777778123e+00 4.861111111111111605e+00 4.166666666666666963e+00 7.300000000000000000e+01 5.400000000000000000e+01 4.800000000000000000e+01
2.941176470588235059e+00 5.176470588235293491e+00 4.411764705882352366e+00 6.800000000000000000e+01 5.400000000000000000e+01 4.300000000000000000e+01
2.857142857142857206e+00 5.057142857142856940e+00 4.285714285714285587e+00 6.600000000000000000e+01 5.400000000000000000e+01 3.800000000000000000e+01
2.857142857142857206e+00 5.085714285714286298e+00 4.285714285714285587e+00 7.100000000000000000e+01 5.900000000000000000e+01 4.500000000000000000e+01
2.702702702702702187e+00 4.837837837837837718e+00 4.054054054054053502e+00 7.200000000000000000e+01 5.900000000000000000e+01 5.100000000000000000e+01
2.631578947368420796e+00 4.736842105263157521e+00 3.947368421052631415e+00 4.700000000000000000e+01 3.700000000000000000e+01 3.800000000000000000e+01
2.564102564102563875e+00 4.641025641025640525e+00 3.846153846153845812e+00 7.000000000000000000e+01 5.000000000000000000e+01 4.300000000000000000e+01
2.564102564102563875e+00 4.666666666666666075e+00 3.846153846153845812e+00 1.680000000000000000e+02 1.390000000000000000e+02 1.070000000000000000e+02
2.500000000000000000e+00 4.575000000000000178e+00 3.750000000000000000e+00 1.830000000000000000e+02 1.540000000000000000e+02 1.140000000000000000e+02
2.500000000000000000e+00 4.599999999999999645e+00 3.750000000000000000e+00 1.850000000000000000e+02 1.570000000000000000e+02 1.330000000000000000e+02
2.500000000000000000e+00 4.625000000000000000e+00 3.750000000000000000e+00 1.760000000000000000e+02 1.530000000000000000e+02 1.210000000000000000e+02
2.564102564102563875e+00 4.769230769230769162e+00 3.846153846153845812e+00 1.720000000000000000e+02 1.490000000000000000e+02 1.070000000000000000e+02
3.831417624521072929e-01 7.739463601532566850e-01 5.747126436781608838e-01 9.600000000000000000e+01 7.400000000000000000e+01 6.000000000000000000e+01
3.773584905660377076e-01 7.924528301886791803e-01 5.660377358490565891e-01 1.660000000000000000e+02 1.460000000000000000e+02 1.220000000000000000e+02
3.773584905660377076e-01 7.962264150943395569e-01 5.660377358490565891e-01 1.900000000000000000e+02 1.690000000000000000e+02 1.400000000000000000e+02
3.745318352059924250e-01 7.940074906367039498e-01 5.617977528089886929e-01 1.800000000000000000e+02 1.590000000000000000e+02 1.320000000000000000e+02
3.731343283582089221e-01 7.947761194029849818e-01 5.597014925373133831e-01 1.600000000000000000e+02 1.390000000000000000e+02 1.120000000000000000e+02
3.690036900369003114e-01 7.896678966789666410e-01 5.535055350553504949e-01 1.700000000000000000e+02 1.500000000000000000e+02 1.250000000000000000e+02
3.649635036496350349e-01 7.846715328467153139e-01 5.474452554744525523e-01 1.640000000000000000e+02 1.440000000000000000e+02 1.200000000000000000e+02
3.610108303249097150e-01 7.797833935018049223e-01 5.415162454873645448e-01 1.470000000000000000e+02 1.290000000000000000e+02 1.090000000000000000e+02
3.584229390681002991e-01 7.777777777777776791e-01 5.376344086021505042e-01 1.120000000000000000e+02 9.500000000000000000e+01 7.900000000000000000e+01
3.571428571428571508e-01 7.785714285714284699e-01 5.357142857142856984e-01 6.600000000000000000e+01 5.000000000000000000e+01 3.500000000000000000e+01
3.546099290780141411e-01 7.765957446808510189e-01 5.319148936170212671e-01 6.700000000000000000e+01 5.300000000000000000e+01 4.000000000000000000e+01
3.533568904593639703e-01 7.773851590106007903e-01 5.300353356890459278e-01 6.600000000000000000e+01 5.400000000000000000e+01 3.800000000000000000e+01
3.496503496503496344e-01 7.727272727272727071e-01 5.244755244755244794e-01 6.500000000000000000e+01 5.100000000000000000e+01 3.800000000000000000e+01
3.436426116838487421e-01 7.628865979381442841e-01 5.154639175257731409e-01 6.400000000000000000e+01 5.000000000000000000e+01 3.900000000000000000e+01
3.424657534246575152e-01 7.636986301369862451e-01 5.136986301369862451e-01 6.200000000000000000e+01 4.800000000000000000e+01 3.500000000000000000e+01
6.346153846153845812e-01 -4.102564102564102422e-01 9.615384615384614531e-01 8.200000000000000000e+01 6.400000000000000000e+01 5.000000000000000000e+01
6.265822784810126667e-01 -3.987341772151898334e-01 9.493670886075948889e-01 6.200000000000000000e+01 4.900000000000000000e+01 4.000000000000000000e+01
6.111111111111111605e-01 -3.827160493827160281e-01 9.259259259259259300e-01 2.900000000000000000e+01 2.000000000000000000e+01 1.300000000000000000e+01
5.999999999999999778e-01 -3.696969696969696906e-01 9.090909090909090606e-01 4.200000000000000000e+01 3.300000000000000000e+01 2.600000000000000000e+01
2.828571428571428070e-01 -1.542857142857142760e-01 4.285714285714285476e-01 9.600000000000000000e+01 8.000000000000000000e+01 6.400000000000000000e+01
2.780898876404493958e-01 -1.488764044943820253e-01 4.213483146067415475e-01 8.100000000000000000e+01 6.300000000000000000e+01 4.900000000000000000e+01
2.765363128491619693e-01 -1.452513966480446783e-01 4.189944134078211757e-01 7.700000000000000000e+01 5.900000000000000000e+01 3.900000000000000000e+01
2.757660167130919215e-01 -1.420612813370473460e-01 4.178272980501392952e-01 7.800000000000000000e+01 5.700000000000000000e+01 3.800000000000000000e+01
4.380530973451327026e-01 -2.079646017699114668e-01 6.637168141592919568e-01 1.250000000000000000e+02 1.000000000000000000e+02 7.800000000000000000e+01
4.361233480176211486e-01 -1.982378854625550524e-01 6.607929515418501376e-01 1.650000000000000000e+02 1.480000000000000000e+02 1.220000000000000000e+02
1.076086956521739246e+00 -1.521739130434782428e-01 1.630434782608695565e+00 2.000000000000000000e+02 1.880000000000000000e+02 1.620000000000000000e+02
1.064516129032258007e+00 3.225806451612903136e-01 1.612903225806451513e+00 1.710000000000000000e+02 1.060000000000000000e+02 4.800000000000000000e+01
1.995967741935484041e-01 2.802419354838709964e-01 3.024193548387096864e-01 3.600000000000000000e+01 3.400000000000000000e+01 8.300000000000000000e+01
1.995967741935484041e-01 2.822580645161290591e-01 3.024193548387096864e-01 3.400000000000000000e+01 3.200000000000000000e+01 8.100000000000000000e+01
1.995967741935484041e-01 2.842741935483870663e-01 3.024193548387096864e-01 3.400000000000000000e+01 3.200000000000000000e+01 8.100000000000000000e+01
1.995967741935484041e-01 2.862903225806451846e-01 3.024193548387096864e-01 3.400000000000000000e+01 3.200000000000000000e+01 8.100000000000000000e+01
1.995967741935484041e-01 2.883064516129032473e-01 3.024193548387096864e-01 3.300000000000000000e+01 3.100000000000000000e+01 7.800000000000000000e+01
2.773109243697478576e-01 4.649859943977590615e-01 4.201680672268907069e-01 8.300000000000000000e+01 6.400000000000000000e+01 5.000000000000000000e+01
2.757660167130919215e-01 4.651810584958217532e-01 4.178272980501392952e-01 1.610000000000000000e+02 1.380000000000000000e+02 1.060000000000000000e+02
3.413793103448275357e+00 5.999999999999999112e+00 5.172413793103447510e+00 6.900000000000000000e+01 5.100000000000000000e+01 4.100000000000000000e+01
2.999999999999999556e+00 5.303030303030302761e+00 4.545454545454544970e+00 6.500000000000000000e+01 5.100000000000000000e+01 4.200000000000000000e+01
3.193548387096774466e+00 5.677419354838709964e+00 4.838709677419354982e+00 6.900000000000000000e+01 5.600000000000000000e+01 4.700000000000000000e+01
2.999999999999999556e+00 5.363636363636363313e+00 4.545454545454544970e+00 7.200000000000000000e+01 6.000000000000000000e+01 4.800000000000000000e+01
2.911764705882352366e+00 5.235294117647057988e+00 4.411764705882352366e+00 6.700000000000000000e+01 5.300000000000000000e+01 4.200000000000000000e+01
2.750000000000000444e+00 4.972222222222222321e+00 4.166666666666666963e+00 5.400000000000000000e+01 4.000000000000000000e+01 3.100000000000000000e+01
2.675675675675675436e+00 4.864864864864864913e+00 4.054054054054053502e+00 6.600000000000000000e+01 4.800000000000000000e+01 4.400000000000000000e+01
2.605263157894736725e+00 4.763157894736841591e+00 3.947368421052631415e+00 1.560000000000000000e+02 1.330000000000000000e+02 1.150000000000000000e+02
2.605263157894736725e+00 4.789473684210526550e+00 3.947368421052631415e+00 1.830000000000000000e+02 1.570000000000000000e+02 1.220000000000000000e+02
2.605263157894736725e+00 4.815789473684210620e+00 3.947368421052631415e+00 1.870000000000000000e+02 1.560000000000000000e+02 1.250000000000000000e+02
2.538461538461538325e+00 4.717948717948717174e+00 3.846153846153845812e+00 1.790000000000000000e+02 1.520000000000000000e+02 1.250000000000000000e+02
2.605263157894736725e+00 4.868421052631578760e+00 3.947368421052631415e+00 1.800000000000000000e+02 1.580000000000000000e+02 1.210000000000000000e+02
4.057377049180327377e-01 7.827868852459015647e-01 6.147540983606556431e-01 5.800000000000000000e+01 5.000000000000000000e+01 3.900000000000000000e+01
4.024390243902439268e-01 7.804878048780486965e-01 6.097560975609755962e-01 6.600000000000000000e+01 5.500000000000000000e+01 4.900000000000000000e+01
4.008097165991902355e-01 7.813765182186234171e-01 6.072874493927125084e-01 7.100000000000000000e+01 5.400000000000000000e+01 4.400000000000000000e+01
3.991935483870968082e-01 7.822580645161291146e-01 6.048387096774193727e-01 1.480000000000000000e+02 1.260000000000000000e+02 1.030000000000000000e+02
