2.258064516129032473e-01 -9.354838709677418818e-01 4.838709677419354982e+00
1.891891891891891719e-01 -7.567567567567566877e-01 4.054054054054053502e+00
7.070707070707070441e-02 -2.727272727272727071e-01 1.515151515151515138e+00
6.930693069306929910e-02 -2.574257425742573768e-01 1.485148514851484913e+00
6.930693069306929910e-02 -2.475247524752474670e-01 1.485148514851484913e+00
6.542056074766354479e-02 -2.056074766355140138e-01 1.401869158878504606e+00
5.645161290322581182e-02 -1.612903225806451846e-01 1.209677419354838745e+00
4.666666666666666741e-01 -8.666666666666666963e-01 1.000000000000000000e+01
3.684210526315789269e-01 -6.315789473684210176e-01 7.894736842105262831e+00
3.333333333333333148e-01 -5.238095238095238360e-01 7.142857142857142350e+00
4.375000000000000000e-01 -6.250000000000000000e-01 9.375000000000000000e+00
8.045977011494252762e-02 -8.045977011494252762e-02 1.724137931034482651e+00
7.692307692307692735e-02 -6.593406593406593574e-02 1.648351648351648491e+00
7.865168539325842478e-02 -5.617977528089886791e-02 1.685393258426966190e+00
7.692307692307692735e-02 -4.395604395604395948e-02 1.648351648351648491e+00
7.608695652173912138e-02 -3.260869565217391214e-02 1.630434782608695565e+00
9.333333333333333759e-02 1.333333333333333419e-02 2.000000000000000000e+00
8.235294117647057321e-02 2.352941176470588203e-02 1.764705882352941124e+00
7.142857142857142461e-02 3.061224489795917950e-02 1.530612244897959107e+00
3.723404255319148759e-02 2.659574468085106405e-02 7.978723404255319007e-01
3.431372549019607449e-02 2.941176470588234906e-02 7.352941176470587648e-01
3.181818181818181490e-02 3.181818181818181490e-02 6.818181818181817677e-01
2.916666666666666713e-02 3.333333333333333287e-02 6.250000000000000000e-01
2.800000000000000266e-01 4.000000000000000222e-01 6.000000000000000000e+00
2.916666666666666713e-02 7.083333333333333148e-02 6.250000000000000000e-01
2.916666666666666713e-02 7.499999999999999722e-02 6.250000000000000000e-01
2.916666666666666713e-02 7.916666666666666297e-02 6.250000000000000000e-01
2.916666666666666713e-02 8.333333333333332871e-02 6.250000000000000000e-01
2.916666666666666713e-02 8.749999999999999445e-02 6.250000000000000000e-01
2.916666666666666713e-02 9.166666666666666019e-02 6.250000000000000000e-01
1.372549019607842979e-01 5.294117647058823595e-01 2.941176470588235059e+00
8.750000000000000000e-01 3.750000000000000000e+00 1.875000000000000000e+01
3.070175438596490711e-02 2.061403508771929571e-01 6.578947368421051989e-01
3.097345132743362442e-02 2.123893805309734206e-01 6.637168141592919568e-01
6.999999999999999556e-01 5.200000000000000178e+00 1.500000000000000000e+01
5.833333333333332593e-01 4.416666666666666075e+00 1.249999999999999822e+01
7.777777777777777901e-01 6.000000000000000888e+00 1.666666666666666785e+01
3.499999999999999778e-01 2.750000000000000000e+00 7.500000000000000000e+00
3.017241379310344612e-02 2.543103448275861878e-01 6.465517241379309388e-01
2.916666666666666713e-02 2.500000000000000000e-01 6.250000000000000000e-01
2.333333333333333370e-01 3.833333333333333481e+00 5.000000000000000000e+00
2.058823529411764608e-01 3.411764705882352366e+00 4.411764705882352366e+00
3.743315508021390764e-02 6.310160427807486316e-01 8.021390374331550666e-01
3.804347826086956069e-02 6.467391304347825942e-01 8.152173913043477826e-01
3.743315508021390764e-02 6.417112299465240755e-01 8.021390374331550666e-01
3.535353535353535220e-02 6.111111111111111605e-01 7.575757575757575690e-01
3.196347031963470142e-02 5.570776255707762248e-01 6.849315068493150305e-01
3.167420814479637164e-02 5.565610859728505888e-01 6.787330316742080649e-01
3.111111111111110675e-02 5.511111111111109961e-01 6.666666666666666297e-01
3.070175438596490711e-02 5.482456140350876472e-01 6.578947368421051989e-01
3.043478260869564994e-02 5.478260869565217961e-01 6.521739130434782705e-01
3.286384976525821150e-02 6.150234741784037507e-01 7.042253521126760063e-01
3.626943005181346852e-02 6.891191709844559643e-01 7.772020725388600892e-01
3.571428571428571230e-02 6.836734693877549729e-01 7.653061224489795533e-01
3.589743589743590174e-02 6.923076923076924016e-01 7.692307692307692735e-01
5.982905982905983161e-02 1.188034188034187810e+00 1.282051282051281937e+00
7.954545454545453032e-02 1.613636363636363535e+00 1.704545454545454364e+00
6.730769230769230449e-02 1.375000000000000000e+00 1.442307692307692291e+00
3.499999999999999778e-01 7.650000000000000355e+00 7.500000000000000000e+00
2.121212121212120993e-01 4.666666666666666075e+00 4.545454545454544970e+00
1.346153846153846090e-01 3.288461538461538325e+00 2.884615384615384581e+00
1.076923076923076844e-01 2.646153846153846079e+00 2.307692307692307487e+00
9.589041095890409039e-02 2.369863013698629839e+00 2.054794520547944980e+00
8.333333333333332871e-02 2.071428571428571175e+00 1.785714285714285587e+00
7.070707070707070441e-02 1.767676767676767513e+00 1.515151515151515138e+00
5.982905982905983161e-02 1.504273504273504258e+00 1.282051282051281937e+00
6.363636363636362425e-01 1.654545454545454319e+01 1.363636363636363491e+01
5.000000000000000000e-01 1.307142857142857117e+01 1.071428571428571352e+01
2.413793103448275690e-01 6.482758620689653917e+00 5.172413793103447510e+00
6.999999999999999556e-01 1.989999999999999858e+01 1.500000000000000000e+01
3.499999999999999778e-01 1.019999999999999929e+01 7.500000000000000000e+00
4.117647058823529216e-01 1.276470588235294024e+01 8.823529411764704733e+00
8.139534883720930813e-02 2.569767441860465240e+00 1.744186046511627897e+00
3.465346534653464955e-02 1.153465346534653380e+00 7.425742574257424566e-01
3.888888888888888951e-01 1.322222222222222321e+01 8.333333333333333925e+00
3.333333333333333148e-01 1.138095238095238138e+01 7.142857142857142350e+00
3.181818181818181213e-01 1.090909090909090828e+01 6.818181818181817455e+00
6.306306306306305731e-02 2.180180180180179672e+00 1.351351351351351093e+00
6.250000000000000000e-02 2.169642857142857206e+00 1.339285714285714191e+00
1.093750000000000000e-01 3.828125000000000000e+00 2.343750000000000000e+00
4.268292682926828896e-02 1.554878048780487632e+00 9.146341463414633388e-01
4.430379746835443056e-02 1.620253164556962000e+00 9.493670886075948889e-01
4.191616766467066296e-02 1.538922155688623006e+00 8.982035928143713432e-01
2.121212121212120993e-01 7.939393939393938560e+00 4.545454545454544970e+00
2.692307692307692180e-01 1.011538461538461497e+01 5.769230769230769162e+00
2.592592592592592449e-01 9.777777777777776791e+00 5.555555555555555358e+00
3.499999999999999778e-01 1.325000000000000000e+01 7.500000000000000000e+00
3.499999999999999778e-01 1.330000000000000071e+01 7.500000000000000000e+00
2.916666666666666297e-01 1.112499999999999822e+01 6.249999999999999112e+00
2.121212121212120993e-01 8.121212121212119328e+00 4.545454545454544970e+00
1.320754716981132060e-01 5.113207547169810852e+00 2.830188679245282835e+00
1.875000000000000000e-01 -2.843750000000000000e+00 4.687500000000000000e+00
1.764705882352941013e-01 -2.647058823529411242e+00 4.411764705882352366e+00
5.714285714285714107e-02 -8.380952380952381153e-01 1.428571428571428603e+00
5.607476635514018620e-02 -8.130841121495326895e-01 1.401869158878504606e+00
5.042016806722689204e-02 -7.226890756302520868e-01 1.260504201680672232e+00
8.955223880597014408e-02 -1.104477611940298365e+00 2.238805970149253532e+00
8.333333333333332871e-02 -1.013888888888889062e+00 2.083333333333333481e+00
2.500000000000000139e-02 -2.958333333333333370e-01 6.250000000000000000e-01
2.500000000000000139e-02 -2.916666666666666852e-01 6.250000000000000000e-01
2.142857142857142461e-01 -2.321428571428571175e+00 5.357142857142856762e+00
1.875000000000000000e-01 -2.000000000000000000e+00 4.687500000000000000e+00
4.878048780487804353e-02 -4.796747967479674801e-01 1.219512195121951192e+00
4.687500000000000000e-02 -4.531250000000000000e-01 1.171875000000000000e+00
4.511278195488722248e-02 -4.285714285714286031e-01 1.127819548872180500e+00
4.444444444444444614e-02 -4.148148148148148584e-01 1.111111111111111160e+00
4.109589041095889489e-02 -3.767123287671232390e-01 1.027397260273972490e+00
4.054054054054053585e-02 -3.648648648648648019e-01 1.013513513513513375e+00
4.000000000000000083e-02 -3.533333333333333326e-01 1.000000000000000000e+00
4.026845637583891663e-02 -3.489932885906039672e-01 1.006711409395973034e+00
3.973509933774833913e-02 -3.377483443708608757e-01 9.933774834437084644e-01
4.411764705882352533e-02 -3.676470588235293824e-01 1.102941176470588092e+00
1.764705882352941013e-01 -1.352941176470588092e+00 4.411764705882352366e+00
2.000000000000000111e-01 -1.500000000000000000e+00 5.000000000000000000e+00
2.500000000000000139e-02 -1.791666666666666685e-01 6.250000000000000000e-01
2.500000000000000139e-02 -1.749999999999999889e-01 6.250000000000000000e-01
2.500000000000000139e-02 -1.708333333333333370e-01 6.250000000000000000e-01
3.389830508474576953e-02 -2.259887005649717784e-01 8.474576271186441412e-01
2.500000000000000139e-02 -1.583333333333333259e-01 6.250000000000000000e-01
1.111111111111110911e-01 -6.666666666666666297e-01 2.777777777777777679e+00
2.500000000000000139e-02 -1.375000000000000111e-01 6.250000000000000000e-01
2.000000000000000111e-01 -9.666666666666666741e-01 5.000000000000000000e+00
1.666666666666666574e-01 -7.777777777777777901e-01 4.166666666666666963e+00
6.521739130434782428e-02 -2.934782608695651884e-01 1.630434782608695565e+00
6.122448979591835899e-02 -2.653061224489795533e-01 1.530612244897959107e+00
5.940594059405939625e-02 -2.475247524752474670e-01 1.485148514851484913e+00
2.752293577981651182e-02 -8.256880733944953199e-02 6.880733944954128267e-01
2.500000000000000139e-02 -7.083333333333333148e-02 6.250000000000000000e-01
4.999999999999998890e-01 -1.166666666666666519e+00 1.249999999999999822e+01
5.454545454545454142e-01 -1.181818181818181657e+00 1.363636363636363491e+01
4.615384615384615086e-01 -9.230769230769230171e-01 1.153846153846153832e+01
4.999999999999998890e-01 -9.166666666666665186e-01 1.249999999999999822e+01
6.666666666666666297e-01 -1.111111111111111160e+00 1.666666666666666785e+01
5.555555555555554553e-02 -7.407407407407406996e-02 1.388888888888888840e+00
6.521739130434782428e-02 -6.521739130434782428e-02 1.630434782608695565e+00
6.741573033707864981e-02 -5.617977528089886791e-02 1.685393258426966190e+00
6.666666666666666574e-02 -4.444444444444444614e-02 1.666666666666666741e+00
8.219178082191778978e-02 1.369863013698630061e-02 2.054794520547944980e+00
7.058823529411764608e-02 2.352941176470588203e-02 1.764705882352941124e+00
6.060606060606060080e-02 3.030303030303030040e-02 1.515151515151515138e+00
3.174603174603174427e-02 2.645502645502645356e-02 7.936507936507936067e-01
2.941176470588234906e-02 2.941176470588234906e-02 7.352941176470587648e-01
2.739726027397260122e-02 3.196347031963470142e-02 6.849315068493150305e-01
3.092783505154638943e-02 4.639175257731958241e-02 7.731958762886597114e-01
3.045685279187816674e-02 5.583756345177664365e-02 7.614213197969541547e-01
2.870813397129186317e-02 5.741626794258372635e-02 7.177033492822966210e-01
2.803738317757009310e-02 6.074766355140186896e-02 7.009345794392523032e-01
2.739726027397260122e-02 6.849315068493150305e-02 6.849315068493150305e-01
2.586206896551723755e-02 7.327586206896551102e-02 6.465517241379309388e-01
2.500000000000000139e-02 7.499999999999999722e-02 6.250000000000000000e-01
2.500000000000000139e-02 7.916666666666666297e-02 6.250000000000000000e-01
2.500000000000000139e-02 8.333333333333332871e-02 6.250000000000000000e-01
2.500000000000000139e-02 8.749999999999999445e-02 6.250000000000000000e-01
2.500000000000000139e-02 9.166666666666666019e-02 6.250000000000000000e-01
2.000000000000000111e-01 8.333333333333333703e-01 5.000000000000000000e+00
1.538461538461538269e-01 6.666666666666665186e-01 3.846153846153845812e+00
1.132075471698113234e-01 5.094339622641509413e-01 2.830188679245282835e+00
7.500000000000000000e-01 3.750000000000000000e+00 1.875000000000000000e+01
7.500000000000000000e-01 4.875000000000000000e+00 1.875000000000000000e+01
2.643171806167400606e-02 2.026431718061673937e-01 6.607929515418501376e-01
2.654867256637167758e-02 2.079646017699114668e-01 6.637168141592919568e-01
2.690582959641255739e-02 2.152466367713004591e-01 6.726457399103138446e-01
7.500000000000000000e-01 6.625000000000000000e+00 1.875000000000000000e+01
4.615384615384615086e-01 4.307692307692307487e+00 1.153846153846153832e+01
2.500000000000000139e-02 2.458333333333333204e-01 6.250000000000000000e-01
2.727272727272727140e-02 4.954545454545454253e-01 6.818181818181817677e-01
1.621621621621621434e-01 3.135135135135134643e+00 4.054054054054053502e+00
3.030303030303030040e-02 6.010101010101009944e-01 7.575757575757575690e-01
3.015075376884421982e-02 6.030150753768843686e-01 7.537688442211054607e-01
2.830188679245283084e-02 5.707547169811320042e-01 7.075471698113207086e-01
2.727272727272727140e-02 5.545454545454544526e-01 6.818181818181817677e-01
2.727272727272727140e-02 5.590909090909090828e-01 6.818181818181817677e-01
2.678571428571428076e-02 5.535714285714284921e-01 6.696428571428570953e-01
2.643171806167400606e-02 5.506607929515417998e-01 6.607929515418501376e-01
2.643171806167400606e-02 5.550660792951540579e-01 6.607929515418501376e-01
2.955665024630542079e-02 6.403940886699507340e-01 7.389162561576354538e-01
3.225806451612902442e-02 7.150537634408601351e-01 8.064516129032257563e-01
3.225806451612902442e-02 7.204301075268817467e-01 8.064516129032257563e-01
6.976744186046511531e-02 1.651162790697674243e+00 1.744186046511627897e+00
4.615384615384615086e-01 1.176923076923077005e+01 1.153846153846153832e+01
1.875000000000000000e-01 4.812500000000000000e+00 4.687500000000000000e+00
1.333333333333333315e-01 3.444444444444445086e+00 3.333333333333333481e+00
1.016949152542372808e-01 2.644067796610169552e+00 2.542372881355932090e+00
6.382978723404254817e-02 1.680851063829787329e+00 1.595744680851063801e+00
5.504587155963302364e-02 1.458715596330275144e+00 1.376146788990825653e+00
6.666666666666666297e-01 1.877777777777777857e+01 1.666666666666666785e+01
8.000000000000000167e-02 2.279999999999999805e+00 2.000000000000000000e+00
7.792207792207793415e-02 2.233766233766233622e+00 1.948051948051948035e+00
7.142857142857142461e-02 2.059523809523809312e+00 1.785714285714285587e+00
6.593406593406593574e-02 1.912087912087912400e+00 1.648351648351648491e+00
5.714285714285714107e-02 1.666666666666666741e+00 1.428571428571428603e+00
5.999999999999999778e-01 1.819999999999999929e+01 1.500000000000000000e+01
4.000000000000000222e-01 1.219999999999999929e+01 1.000000000000000000e+01
1.132075471698113234e-01 3.490566037735848948e+00 2.830188679245282835e+00
1.016949152542372808e-01 3.152542372881355526e+00 2.542372881355932090e+00
3.821656050955413858e-02 1.222929936305732435e+00 9.554140127388534021e-01
3.428571428571428048e-02 1.108571428571428541e+00 8.571428571428570953e-01
4.999999999999998890e-01 1.699999999999999645e+01 1.249999999999999822e+01
2.857142857142856984e-01 1.033333333333333393e+01 7.142857142857142350e+00
4.137931034482759257e-02 1.565517241379310365e+00 1.034482758620689724e+00
8.955223880597014408e-02 3.656716417910447436e+00 2.238805970149253532e+00
8.219178082191778978e-02 3.369863013698629839e+00 2.054794520547944980e+00
8.108108108108107170e-02 3.351351351351350871e+00 2.027027027027026751e+00
2.500000000000000139e-02 1.074999999999999956e+00 6.250000000000000000e-01
2.399999999999999911e-01 1.051999999999999957e+01 6.000000000000000000e+00
2.000000000000000111e-01 8.800000000000000711e+00 5.000000000000000000e+00
2.222222222222221821e-01 9.814814814814814881e+00 5.555555555555555358e+00
2.068965517241379004e-01 9.172413793103446622e+00 5.172413793103447510e+00
2.752293577981651182e-02 1.233944954128440408e+00 6.880733944954128267e-01
2.752293577981651182e-02 1.238532110091743021e+00 6.880733944954128267e-01
2.714932126696832301e-02 1.226244343891402577e+00 6.787330316742080649e-01
2.500000000000000139e-02 1.137499999999999956e+00 6.250000000000000000e-01
6.849315068493150305e-02 -1.232876712328766944e+00 2.054794520547944980e+00
6.410256410256409687e-02 -1.141025641025640969e+00 1.923076923076922906e+00
4.347826086956522312e-02 -7.565217391304347450e-01 1.304347826086956541e+00
4.098360655737704611e-02 -7.049180327868851403e-01 1.229508196721311286e+00
3.703703703703703498e-02 -6.296296296296296502e-01 1.111111111111111160e+00
7.575757575757575968e-02 -1.136363636363636243e+00 2.272727272727272485e+00
7.142857142857142461e-02 -1.057142857142856940e+00 2.142857142857142794e+00
2.083333333333333218e-02 -2.958333333333333370e-01 6.250000000000000000e-01
2.083333333333333218e-02 -2.916666666666666852e-01 6.250000000000000000e-01
4.065040650406503975e-02 -4.796747967479674801e-01 1.219512195121951192e+00
3.846153846153845673e-02 -4.461538461538461231e-01 1.153846153846153744e+00
3.703703703703703498e-02 -4.222222222222222210e-01 1.111111111111111160e+00
3.649635036496350071e-02 -4.087591240875912413e-01 1.094890510948905105e+00
3.401360544217686688e-02 -3.741496598639456050e-01 1.020408163265306145e+00
3.355704697986577195e-02 -3.624161073825503121e-01 1.006711409395973034e+00
3.311258278145694928e-02 -3.509933774834436693e-01 9.933774834437084644e-01
3.333333333333333287e-02 -3.466666666666666785e-01 1.000000000000000000e+00
3.267973856209149819e-02 -3.333333333333333148e-01 9.803921568627450567e-01
3.846153846153845673e-02 -3.846153846153845812e-01 1.153846153846153744e+00
3.846153846153845673e-02 -3.769230769230768607e-01 1.153846153846153744e+00
1.219512195121951054e-01 -1.146341463414634054e+00 3.658536585365853355e+00
1.282051282051281937e-01 -1.179487179487179294e+00 3.846153846153845812e+00
1.562500000000000000e-01 -1.406250000000000000e+00 4.687500000000000000e+00
1.136363636363636187e-01 -9.999999999999997780e-01 3.409090909090908728e+00
2.083333333333333218e-02 -1.791666666666666685e-01 6.250000000000000000e-01
2.083333333333333218e-02 -1.749999999999999889e-01 6.250000000000000000e-01
2.083333333333333218e-02 -1.708333333333333370e-01 6.250000000000000000e-01
8.771929824561403022e-02 -6.315789473684210176e-01 2.631578947368420796e+00
2.083333333333333218e-02 -1.375000000000000111e-01 6.250000000000000000e-01
2.083333333333333218e-02 -1.250000000000000000e-01 6.250000000000000000e-01
5.434782608695652023e-02 -2.826086956521738913e-01 1.630434782608695565e+00
4.950495049504949341e-02 -2.475247524752474670e-01 1.485148514851484913e+00
2.415458937198067257e-02 -8.695652173913041849e-02 7.246376811594201772e-01
2.538071065989847344e-02 -1.522842639593908337e-02 7.614213197969541547e-01
5.000000000000000278e-02 2.999999999999999889e-02 1.500000000000000000e+00
2.617801047120418834e-02 2.617801047120418834e-02 7.853403141361255946e-01
2.439024390243902177e-02 2.926829268292683098e-02 7.317073170731707155e-01
2.283105022831050102e-02 3.196347031963470142e-02 6.849315068493150305e-01
2.525252525252525207e-02 4.545454545454545581e-02 7.575757575757575690e-01
2.369668246445497464e-02 5.687203791469193359e-02 7.109004739336491907e-01
2.314814814814815033e-02 6.018518518518518184e-02 6.944444444444444198e-01
2.262443438914026744e-02 6.787330316742080927e-02 6.787330316742080649e-01
2.164502164502164414e-02 7.359307359307359908e-02 6.493506493506493449e-01
2.083333333333333218e-02 7.499999999999999722e-02 6.250000000000000000e-01
2.083333333333333218e-02 7.916666666666666297e-02 6.250000000000000000e-01
2.083333333333333218e-02 8.333333333333332871e-02 6.250000000000000000e-01
2.083333333333333218e-02 8.749999999999999445e-02 6.250000000000000000e-01
2.083333333333333218e-02 9.166666666666666019e-02 6.250000000000000000e-01
2.631578947368420907e-01 1.263157894736842035e+00 7.894736842105262831e+00
1.612903225806451846e-01 8.064516129032258673e-01 4.838709677419354982e+00
5.555555555555555802e-01 4.333333333333333037e+00 1.666666666666666785e+01
3.448275862068965469e-02 3.034482758620690168e-01 1.034482758620689724e+00
2.232142857142857192e-02 2.098214285714285754e-01 6.696428571428570953e-01
2.262443438914026744e-02 2.171945701357465841e-01 6.787330316742080649e-01
5.555555555555555802e-01 1.088888888888888928e+01 1.666666666666666785e+01
2.155172413793103245e-02 4.568965517241379004e-01 6.465517241379309388e-01
2.232142857142857192e-02 4.776785714285713969e-01 6.696428571428570953e-01
2.262443438914026744e-02 4.886877828054298489e-01 6.787330316742080649e-01
2.283105022831050102e-02 4.977168949771689221e-01 6.849315068493150305e-01
2.369668246445497464e-02 5.592417061611373308e-01 7.109004739336491907e-01
2.450980392156862711e-02 5.833333333333333703e-01 7.352941176470587648e-01
2.380952380952381167e-02 5.714285714285715079e-01 7.142857142857143016e-01
2.325581395348837177e-02 5.627906976744185830e-01 6.976744186046511809e-01
2.283105022831050102e-02 5.570776255707762248e-01 6.849315068493150305e-01
2.262443438914026744e-02 5.565610859728505888e-01 6.787330316742080649e-01
2.222222222222221960e-02 5.511111111111109961e-01 6.666666666666666297e-01
2.212389380530973074e-02 5.530973451327433343e-01 6.637168141592919568e-01
2.777777777777777971e-02 7.333333333333332815e-01 8.333333333333333703e-01
2.747252747252747554e-02 7.307692307692308376e-01 8.241758241758242454e-01
2.702702702702702853e-02 7.243243243243243645e-01 8.108108108108108558e-01
2.994011976047904200e-02 8.143712574850300312e-01 8.982035928143713432e-01
3.649635036496350071e-02 1.007299270072992803e+00 1.094890510948905105e+00
5.555555555555555802e-01 1.700000000000000000e+01 1.666666666666666785e+01
1.562500000000000000e-01 4.812500000000000000e+00 4.687500000000000000e+00
1.063829787234042562e-01 3.297872340425531679e+00 3.191489361702127603e+00
8.474576271186440302e-02 2.644067796610169552e+00 2.542372881355932090e+00
6.493506493506492894e-02 2.038961038961039307e+00 1.948051948051948035e+00
5.376344086021505458e-02 1.698924731182795522e+00 1.612903225806451513e+00
4.629629629629630067e-02 1.472222222222222099e+00 1.388888888888888840e+00
3.937007874015747283e-02 1.259842519685039131e+00 1.181102362204724310e+00
6.250000000000000000e-02 2.137500000000000178e+00 1.875000000000000000e+00
5.813953488372092943e-02 2.000000000000000000e+00 1.744186046511627897e+00
5.617977528089886791e-02 1.943820224719100986e+00 1.685393258426966190e+00
4.901960784313725422e-02 1.705882352941176405e+00 1.470588235294117530e+00
3.571428571428571508e-01 1.299999999999999822e+01 1.071428571428571352e+01
2.941176470588234837e-01 1.076470588235294024e+01 8.823529411764704733e+00
8.771929824561403022e-02 3.245614035087719174e+00 2.631578947368420796e+00
8.064516129032259228e-02 3.000000000000000000e+00 2.419354838709677491e+00
4.901960784313725422e-02 1.843137254901960675e+00 1.470588235294117530e+00
4.464285714285714385e-02 1.687499999999999778e+00 1.339285714285714191e+00
4.132231404958677107e-02 1.570247933884297398e+00 1.239669421487603174e+00
3.521126760563379754e-02 1.345070422535211030e+00 1.056338028169014009e+00
3.030303030303030040e-02 1.163636363636363580e+00 9.090909090909090606e-01
2.890173410404624221e-02 1.115606936416184913e+00 8.670520231213872941e-01
2.732240437158470203e-02 1.060109289617486406e+00 8.196721311475410054e-01
2.645502645502645356e-02 1.031746031746031633e+00 7.936507936507936067e-01
6.250000000000000000e-01 2.650000000000000000e+01 1.875000000000000000e+01
3.846153846153846367e-01 1.638461538461538325e+01 1.153846153846153832e+01
2.380952380952380543e-01 1.019047619047618980e+01 7.142857142857142350e+00
1.470588235294117418e-01 6.323529411764704733e+00 4.411764705882352366e+00
1.086956521739130405e-01 4.695652173913043015e+00 3.260869565217391131e+00
5.376344086021505458e-02 2.408602150537634046e+00 1.612903225806451513e+00
5.000000000000000000e-01 2.419999999999999929e+01 1.500000000000000000e+01
5.000000000000000000e-01 2.430000000000000071e+01 1.500000000000000000e+01
5.000000000000000000e-01 2.439999999999999858e+01 1.500000000000000000e+01
4.032258064516129614e-02 2.032258064516129448e+00 1.209677419354838745e+00
4.201680672268907207e-02 2.142857142857142794e+00 1.260504201680672232e+00
3.906250000000000000e-02 2.000000000000000000e+00 1.171875000000000000e+00
2.325581395348837177e-02 1.241860465116279011e+00 6.976744186046511809e-01
2.293577981651376274e-02 1.229357798165137572e+00 6.880733944954128267e-01
2.272727272727272443e-02 1.222727272727272663e+00 6.818181818181817677e-01
2.283105022831050102e-02 1.232876712328767166e+00 6.849315068493150305e-01
2.262443438914026744e-02 1.226244343891402577e+00 6.787330316742080649e-01
2.083333333333333218e-02 1.133333333333333304e+00 6.250000000000000000e-01
2.083333333333333218e-02 1.137499999999999956e+00 6.250000000000000000e-01
5.128205128205128027e-02 -1.166666666666666519e+00 1.923076923076922906e+00
5.194805194805194454e-02 -1.168831168831168776e+00 1.948051948051948035e+00
4.819277108433734497e-02 -1.072289156626506035e+00 1.807228915662650426e+00
3.846153846153846367e-02 -8.461538461538461453e-01 1.442307692307692291e+00
3.418803418803418454e-02 -7.435897435897435015e-01 1.282051282051281937e+00
3.225806451612903136e-02 -6.935483870967741327e-01 1.209677419354838745e+00
2.919708029197080196e-02 -6.204379562043795815e-01 1.094890510948905105e+00
2.105263157894736725e-01 -4.157894736842104422e+00 7.894736842105262831e+00
2.797202797202797200e-02 -5.104895104895105229e-01 1.048951048951048959e+00
1.666666666666666644e-02 -2.916666666666666852e-01 6.250000000000000000e-01
1.666666666666666644e-02 -2.833333333333333259e-01 6.250000000000000000e-01
1.666666666666666644e-02 -2.791666666666666741e-01 6.250000000000000000e-01
4.597701149425287293e-02 -7.126436781609194471e-01 1.724137931034482651e+00
4.494382022471909988e-02 -6.853932584269663009e-01 1.685393258426966190e+00
3.149606299212598381e-02 -4.566929133858267931e-01 1.181102362204724310e+00
2.941176470588234906e-02 -4.191176470588234837e-01 1.102941176470588092e+00
2.836879432624113406e-02 -3.971631205673759046e-01 1.063829787234042534e+00
2.684563758389261340e-02 -3.691275167785234568e-01 1.006711409395973034e+00
2.666666666666666838e-02 -3.599999999999999867e-01 1.000000000000000000e+00
1.785714285714285615e-02 -2.276785714285714246e-01 6.696428571428570953e-01
3.278688524590163411e-02 -4.098360655737704472e-01 1.229508196721311286e+00
3.278688524590163411e-02 -4.016393442622950283e-01 1.229508196721311286e+00
9.523809523809523281e-02 -1.142857142857142794e+00 3.571428571428571175e+00
8.695652173913043237e-02 -1.021739130434782483e+00 3.260869565217391131e+00
9.302325581395348708e-02 -1.069767441860465240e+00 3.488372093023255793e+00
1.666666666666666644e-02 -1.749999999999999889e-01 6.250000000000000000e-01
1.666666666666666644e-02 -1.708333333333333370e-01 6.250000000000000000e-01
1.666666666666666644e-02 -1.416666666666666630e-01 6.250000000000000000e-01
1.666666666666666644e-02 -1.375000000000000111e-01 6.250000000000000000e-01
1.666666666666666644e-02 -1.333333333333333315e-01 6.250000000000000000e-01
1.666666666666666644e-02 -1.291666666666666796e-01 6.250000000000000000e-01
1.666666666666666644e-02 -1.250000000000000000e-01 6.250000000000000000e-01
4.347826086956521618e-02 -2.826086956521738913e-01 1.630434782608695565e+00
2.857142857142857054e-02 -1.714285714285714302e-01 1.071428571428571397e+00
2.684563758389261340e-02 -1.543624161073825218e-01 1.006711409395973034e+00
2.424242424242424240e-02 -1.333333333333333315e-01 9.090909090909090606e-01
1.951219512195121950e-02 -8.780487804878048252e-02 7.317073170731707155e-01
1.960784313725490169e-02 -8.333333333333331483e-02 7.352941176470587648e-01
1.980198019801979875e-02 -7.920792079207919500e-02 7.425742574257424566e-01
1.895734597156397902e-02 -7.109004739336492740e-02 7.109004739336491907e-01
1.731601731601731600e-02 -6.060606060606060080e-02 6.493506493506493449e-01
1.666666666666666644e-02 -5.416666666666666852e-02 6.250000000000000000e-01
2.040816326530612082e-02 -1.530612244897958975e-02 7.653061224489795533e-01
2.030456852791877667e-02 -1.015228426395938834e-02 7.614213197969541547e-01
2.010050251256281090e-02 -5.025125628140702724e-03 7.537688442211054607e-01
2.105263157894736795e-02 0.000000000000000000e+00 7.894736842105263275e-01
2.162162162162162282e-02 5.405405405405405705e-03 8.108108108108108558e-01
2.150537634408601975e-02 1.075268817204300988e-02 8.064516129032257563e-01
2.127659574468085055e-02 1.595744680851063704e-02 7.978723404255319007e-01
2.040816326530612082e-02 2.551020408163265363e-02 7.653061224489795533e-01
1.932367149758453667e-02 2.898550724637680848e-02 7.246376811594201772e-01
1.826484018264840081e-02 3.196347031963470142e-02 6.849315068493150305e-01
1.724137931034482388e-02 3.448275862068964775e-02 6.465517241379309388e-01
1.724137931034482388e-02 4.741379310344826653e-02 6.465517241379309388e-01
1.860465116279069742e-02 5.581395348837209919e-02 6.976744186046511809e-01
1.826484018264840081e-02 5.936073059360730264e-02 6.849315068493150305e-01
1.793721973094170377e-02 6.726457399103139001e-02 6.726457399103138446e-01
1.731601731601731600e-02 7.359307359307359908e-02 6.493506493506493449e-01
1.666666666666666644e-02 7.499999999999999722e-02 6.250000000000000000e-01
1.666666666666666644e-02 7.916666666666666297e-02 6.250000000000000000e-01
1.666666666666666644e-02 8.333333333333332871e-02 6.250000000000000000e-01
1.666666666666666644e-02 8.749999999999999445e-02 6.250000000000000000e-01
1.666666666666666644e-02 9.166666666666666019e-02 6.250000000000000000e-01
1.379310344827585910e-01 8.620689655172413257e-01 5.172413793103447510e+00
1.793721973094170377e-02 2.062780269058295812e-01 6.726457399103138446e-01
1.793721973094170377e-02 2.107623318385649924e-01 6.726457399103138446e-01
1.809954751131221534e-02 2.171945701357465841e-01 6.787330316742080649e-01
4.444444444444444753e-01 5.888888888888889284e+00 1.666666666666666785e+01
2.105263157894736725e-01 5.263157894736841591e+00 7.894736842105262831e+00
1.724137931034482388e-02 4.482758620689654139e-01 6.465517241379309388e-01
1.666666666666666644e-02 4.416666666666666519e-01 6.250000000000000000e-01
1.754385964912280604e-02 4.692982456140350478e-01 6.578947368421051989e-01
1.762114537444933737e-02 4.757709251101320813e-01 6.607929515418501376e-01
1.801801801801801439e-02 4.909909909909908610e-01 6.756756756756755466e-01
1.785714285714285615e-02 4.910714285714284921e-01 6.696428571428570953e-01
3.508771929824561209e-02 9.912280701754385692e-01 1.315789473684210398e+00
3.389830508474576259e-02 9.661016949152542166e-01 1.271186440677966045e+00
1.895734597156397902e-02 5.592417061611373308e-01 7.109004739336491907e-01
1.923076923076923184e-02 5.721153846153845812e-01 7.211538461538461453e-01
1.877934272300469179e-02 5.633802816901407606e-01 7.042253521126760063e-01
1.851851851851851749e-02 5.601851851851851194e-01 6.944444444444444198e-01
1.826484018264840081e-02 5.570776255707762248e-01 6.849315068493150305e-01
1.801801801801801439e-02 5.540540540540539460e-01 6.756756756756755466e-01
1.769911504424778390e-02 5.486725663716812695e-01 6.637168141592919568e-01
1.777777777777777776e-02 5.555555555555554692e-01 6.666666666666666297e-01
1.818181818181818094e-02 5.727272727272727515e-01 6.818181818181817677e-01
1.834862385321101019e-02 5.825688073394494904e-01 6.880733944954128267e-01
2.453987730061349404e-02 8.036809815950919367e-01 9.202453987730060403e-01
2.380952380952380820e-02 7.857142857142856984e-01 8.928571428571427937e-01
2.312138728323699308e-02 7.687861271676300623e-01 8.670520231213872941e-01
2.185792349726775954e-02 7.322404371584699811e-01 8.196721311475410054e-01
2.247191011235954994e-02 7.584269662921347965e-01 8.426966292134830949e-01
2.234636871508379613e-02 7.597765363128491378e-01 8.379888268156423514e-01
3.305785123966941547e-02 1.148760330578512123e+00 1.239669421487603174e+00
3.636363636363635909e-01 1.390909090909090651e+01 1.363636363636363491e+01
1.111111111111111188e-01 4.277777777777778567e+00 4.166666666666666963e+00
7.843137254901960675e-02 3.039215686274509221e+00 2.941176470588235059e+00
6.451612903225806273e-02 2.516129032258064502e+00 2.419354838709677491e+00
4.878048780487804353e-02 1.914634146341463339e+00 1.829268292682926678e+00
4.123711340206184794e-02 1.628865979381443063e+00 1.546391752577319423e+00
3.669724770642202039e-02 1.458715596330275144e+00 1.376146788990825653e+00
3.100775193798449916e-02 1.240310077519380050e+00 1.162790697674418672e+00
4.000000000000000222e-01 1.639999999999999858e+01 1.500000000000000000e+01
4.878048780487804353e-02 2.085365853658536217e+00 1.829268292682926678e+00
4.545454545454544887e-02 1.954545454545454142e+00 1.704545454545454364e+00
4.000000000000000083e-02 1.729999999999999982e+00 1.500000000000000000e+00
4.210526315789473589e-02 1.915789473684210487e+00 1.578947368421052655e+00
5.714285714285714107e-02 2.657142857142857029e+00 2.142857142857142794e+00
4.444444444444444614e-02 2.077777777777777946e+00 1.666666666666666741e+00
3.846153846153846367e-02 1.807692307692307487e+00 1.442307692307692291e+00
3.508771929824561209e-02 1.657894736842105088e+00 1.315789473684210398e+00
3.225806451612903136e-02 1.532258064516129004e+00 1.209677419354838745e+00
2.597402597402597227e-02 1.240259740259740395e+00 9.740259740259740173e-01
2.352941176470588203e-02 1.129411764705882337e+00 8.823529411764705621e-01
2.234636871508379613e-02 1.078212290502793103e+00 8.379888268156423514e-01
2.139037433155080090e-02 1.037433155080214053e+00 8.021390374331550666e-01
2.051282051282051280e-02 1.000000000000000000e+00 7.692307692307692735e-01
4.444444444444444753e-01 2.211111111111111427e+01 1.666666666666666785e+01
1.739130434782608647e-01 8.695652173913043015e+00 6.521739130434782261e+00
4.000000000000000222e-01 2.119999999999999929e+01 1.500000000000000000e+01
2.500000000000000000e-01 1.331250000000000000e+01 9.375000000000000000e+00
1.904761904761904656e-01 1.019047619047618980e+01 7.142857142857142350e+00
1.250000000000000000e-01 6.718750000000000000e+00 4.687500000000000000e+00
8.888888888888889228e-02 4.799999999999999822e+00 3.333333333333333481e+00
3.738317757009345516e-02 2.093457943925233433e+00 1.401869158878504606e+00
3.603603603603602878e-02 2.027027027027026751e+00 1.351351351351351093e+00
3.361344537815125905e-02 1.899159663865545911e+00 1.260504201680672232e+00
6.557377049180326822e-02 3.737704918032786150e+00 2.459016393442622572e+00
3.030303030303030040e-02 1.765151515151514916e+00 1.136363636363636243e+00
2.702702702702702506e-02 1.587837837837837718e+00 1.013513513513513375e+00
2.547770700636942456e-02 1.503184713375796067e+00 9.554140127388534021e-01
2.312138728323699308e-02 1.369942196531791945e+00 8.670520231213872941e-01
2.094240837696334859e-02 1.246073298429319243e+00 7.853403141361255946e-01
5.333333333333333676e-02 3.319999999999999840e+00 2.000000000000000000e+00
3.225806451612903136e-02 2.032258064516129448e+00 1.209677419354838745e+00
3.200000000000000067e-02 2.023999999999999577e+00 1.199999999999999956e+00
3.125000000000000000e-02 1.984375000000000000e+00 1.171875000000000000e+00
3.333333333333333287e-02 2.125000000000000000e+00 1.250000000000000000e+00
3.030303030303030040e-02 1.939393939393939226e+00 1.136363636363636243e+00
1.739130434782608647e-01 1.126086956521739069e+01 6.521739130434782261e+00
1.481481481481481399e-01 9.629629629629629761e+00 5.555555555555555358e+00
1.428571428571428492e-01 9.321428571428571175e+00 5.357142857142856762e+00
1.877934272300469179e-02 1.234741784037558521e+00 7.042253521126760063e-01
1.851851851851851749e-02 1.222222222222222099e+00 6.944444444444444198e-01
1.843317972350230066e-02 1.221198156682027358e+00 6.912442396313362991e-01
1.843317972350230066e-02 1.225806451612903025e+00 6.912442396313362991e-01
1.834862385321101019e-02 1.224770642201834736e+00 6.880733944954128267e-01
1.777777777777777776e-02 1.191111111111111009e+00 6.666666666666666297e-01
1.739130434782608717e-02 1.169565217391304479e+00 6.521739130434782705e-01
1.731601731601731600e-02 1.168831168831168776e+00 6.493506493506493449e-01
1.739130434782608717e-02 1.178260869565217472e+00 6.521739130434782705e-01
1.666666666666666644e-02 1.133333333333333304e+00 6.250000000000000000e-01
1.666666666666666644e-02 1.137499999999999956e+00 6.250000000000000000e-01
4.000000000000000083e-02 -1.213333333333333375e+00 2.000000000000000000e+00
3.896103896103896708e-02 -1.168831168831168776e+00 1.948051948051948035e+00
3.658536585365853439e-02 -1.085365853658536439e+00 1.829268292682926678e+00
2.941176470588234906e-02 -8.627450980392156188e-01 1.470588235294117530e+00
2.564102564102564014e-02 -7.435897435897435015e-01 1.282051282051281937e+00
2.362204724409448786e-02 -6.771653543307086798e-01 1.181102362204724310e+00
2.727272727272727071e-01 -7.545454545454544970e+00 1.363636363636363491e+01
1.499999999999999944e-01 -4.099999999999999645e+00 7.500000000000000000e+00
1.249999999999999722e-01 -3.374999999999999556e+00 6.249999999999999112e+00
1.250000000000000069e-02 -2.916666666666666852e-01 6.250000000000000000e-01
1.250000000000000069e-02 -2.874999999999999778e-01 6.250000000000000000e-01
5.882352941176469813e-02 -1.294117647058823373e+00 2.941176470588235059e+00
4.166666666666666435e-02 -8.750000000000000000e-01 2.083333333333333481e+00
3.571428571428571230e-02 -7.380952380952380265e-01 1.785714285714285587e+00
2.112676056338028130e-02 -4.014084507042253169e-01 1.056338028169014009e+00
1.382488479262672550e-02 -2.396313364055299155e-01 6.912442396313362991e-01
1.339285714285714038e-02 -2.276785714285714246e-01 6.696428571428570953e-01
7.142857142857142461e-02 -1.142857142857142794e+00 3.571428571428571175e+00
6.382978723404254817e-02 -1.000000000000000000e+00 3.191489361702127603e+00
6.521739130434782428e-02 -1.000000000000000000e+00 3.260869565217391131e+00
6.818181818181817677e-02 -1.022727272727272707e+00 3.409090909090908728e+00
5.357142857142856152e-02 -7.857142857142856984e-01 2.678571428571428381e+00
1.250000000000000069e-02 -1.749999999999999889e-01 6.250000000000000000e-01
1.250000000000000069e-02 -1.708333333333333370e-01 6.250000000000000000e-01
1.250000000000000069e-02 -1.416666666666666630e-01 6.250000000000000000e-01
1.250000000000000069e-02 -1.375000000000000111e-01 6.250000000000000000e-01
1.250000000000000069e-02 -1.333333333333333315e-01 6.250000000000000000e-01
1.153846153846153771e-01 -1.115384615384615197e+00 5.769230769230769162e+00
3.529411764705882304e-02 -3.176470588235293935e-01 1.764705882352941124e+00
3.124999999999999306e-02 -2.708333333333332593e-01 1.562499999999999778e+00
1.973684210526315680e-02 -1.513157894736842091e-01 9.868421052631578538e-01
1.485148514851484906e-02 -8.415841584158414990e-02 7.425742574257424566e-01
1.485148514851484906e-02 -7.920792079207919500e-02 7.425742574257424566e-01
1.421800947867298340e-02 -7.109004739336492740e-02 7.109004739336491907e-01
1.315789473684210280e-02 -6.140350877192981421e-02 6.578947368421051989e-01
1.250000000000000069e-02 -5.416666666666666852e-02 6.250000000000000000e-01
3.333333333333333148e-01 -4.444444444444444753e-01 1.666666666666666785e+01
1.538461538461538547e-02 -1.538461538461538547e-02 7.692307692307692735e-01
1.570680628272251231e-02 -1.047120418848167429e-02 7.853403141361255946e-01
1.515151515151515020e-02 -5.050505050505050067e-03 7.575757575757575690e-01
1.578947368421052336e-02 0.000000000000000000e+00 7.894736842105263275e-01
1.604278074866309980e-02 5.347593582887700224e-03 8.021390374331550666e-01
1.587301587301587213e-02 1.058201058201058142e-02 7.936507936507936067e-01
1.570680628272251231e-02 1.570680628272251231e-02 7.853403141361255946e-01
1.612903225806451221e-02 2.150537634408601975e-02 8.064516129032257563e-01
1.492537313432835619e-02 2.487562189054726147e-02 7.462686567164178442e-01
1.428571428571428527e-02 2.857142857142857054e-02 7.142857142857143016e-01
1.363636363636363570e-02 3.181818181818181490e-02 6.818181818181817677e-01
1.351351351351351253e-02 3.603603603603602878e-02 6.756756756756755466e-01
1.293103448275861878e-02 4.741379310344826653e-02 6.465517241379309388e-01
1.357466063348416151e-02 5.882352941176469813e-02 6.787330316742080649e-01
1.333333333333333419e-02 6.666666666666666574e-02 6.666666666666666297e-01
1.298701298701298613e-02 7.359307359307359908e-02 6.493506493506493449e-01
1.250000000000000069e-02 7.499999999999999722e-02 6.250000000000000000e-01
1.250000000000000069e-02 7.916666666666666297e-02 6.250000000000000000e-01
1.250000000000000069e-02 8.333333333333332871e-02 6.250000000000000000e-01
1.250000000000000069e-02 8.749999999999999445e-02 6.250000000000000000e-01
2.142857142857142461e-01 1.714285714285713969e+00 1.071428571428571352e+01
9.375000000000000000e-02 7.812500000000000000e-01 4.687500000000000000e+00
3.947368421052631360e-02 3.552631578947368363e-01 1.973684210526315708e+00
2.290076335877862246e-02 2.290076335877862246e-01 1.145038167938931206e+00
2.158273381294963794e-02 2.230215827338129508e-01 1.079136690647481966e+00
1.522842639593908337e-02 1.725888324873096069e-01 7.614213197969541547e-01
3.333333333333333148e-01 4.333333333333333037e+00 1.666666666666666785e+01
1.351351351351351253e-02 2.072072072072071447e-01 6.756756756756755466e-01
1.351351351351351253e-02 2.117117117117116587e-01 6.756756756756755466e-01
1.351351351351351253e-02 2.162162162162162005e-01 6.756756756756755466e-01
1.304347826086956624e-02 4.652173913043478048e-01 6.521739130434782705e-01
1.304347826086956624e-02 4.695652173913043570e-01 6.521739130434782705e-01
1.345291479820627870e-02 4.887892376681614581e-01 6.726457399103138446e-01
1.310043668122270674e-02 4.803493449781658930e-01 6.550218340611353440e-01
2.702702702702702506e-02 1.018018018018017834e+00 1.351351351351351093e+00
3.225806451612902442e-02 1.247311827956989250e+00 1.612903225806451513e+00
1.408450704225351971e-02 5.539906103286384997e-01 7.042253521126760063e-01
1.408450704225351971e-02 5.586854460093896302e-01 7.042253521126760063e-01
1.395348837209302480e-02 5.581395348837209225e-01 6.976744186046511809e-01
1.388888888888888638e-02 5.601851851851851194e-01 6.944444444444444198e-01
1.363636363636363570e-02 5.545454545454544526e-01 6.818181818181817677e-01
1.345291479820627870e-02 5.515695067264573259e-01 6.726457399103138446e-01
1.321585903083700303e-02 5.462555066079294308e-01 6.607929515418501376e-01
1.315789473684210280e-02 5.482456140350876472e-01 6.578947368421051989e-01
1.351351351351351253e-02 5.675675675675674325e-01 6.756756756756755466e-01
2.000000000000000042e-02 8.599999999999999867e-01 1.000000000000000000e+00
1.986754966887416957e-02 8.609271523178805285e-01 9.933774834437084644e-01
1.960784313725490169e-02 8.562091503267974524e-01 9.803921568627450567e-01
1.829268292682926719e-02 8.048780487804877426e-01 9.146341463414633388e-01
1.724137931034482735e-02 7.643678160919539222e-01 8.620689655172413257e-01
1.612903225806451221e-02 7.204301075268817467e-01 8.064516129032257563e-01
1.578947368421052336e-02 7.105263157894736725e-01 7.894736842105263275e-01
1.612903225806451221e-02 7.311827956989247479e-01 8.064516129032257563e-01
2.608695652173913249e-02 1.217391304347825942e+00 1.304347826086956541e+00
1.250000000000000069e-02 5.916666666666666741e-01 6.250000000000000000e-01
2.142857142857142461e-01 1.092857142857142883e+01 1.071428571428571352e+01
8.571428571428571508e-02 4.400000000000000355e+00 4.285714285714285587e+00
5.454545454545454281e-02 2.818181818181817899e+00 2.727272727272727071e+00
4.285714285714285754e-02 2.228571428571428648e+00 2.142857142857142794e+00
3.488372093023255766e-02 1.825581395348837122e+00 1.744186046511627897e+00
2.970297029702969813e-02 1.564356435643563970e+00 1.485148514851484913e+00
2.678571428571428076e-02 1.419642857142856984e+00 1.339285714285714191e+00
2.419354838709677352e-02 1.290322580645161477e+00 1.209677419354838745e+00
2.068965517241379629e-02 1.110344827586206895e+00 1.034482758620689724e+00
2.307692307692307543e-01 1.284615384615384670e+01 1.153846153846153832e+01
1.000000000000000056e-01 5.599999999999999645e+00 5.000000000000000000e+00
3.658536585365853439e-02 2.085365853658536217e+00 1.829268292682926678e+00
3.296703296703296787e-02 1.890109890109890500e+00 1.648351648351648491e+00
2.857142857142857054e-02 1.723809523809523681e+00 1.428571428571428603e+00
2.777777777777777277e-02 1.685185185185185119e+00 1.388888888888888840e+00
2.803738317757009310e-02 1.757009345794392718e+00 1.401869158878504606e+00
2.586206896551723755e-02 1.629310344827586077e+00 1.293103448275861878e+00
2.419354838709677352e-02 1.532258064516129004e+00 1.209677419354838745e+00
1.775147928994082885e-02 1.130177514792899185e+00 8.875739644970412900e-01
1.675977653631284536e-02 1.072625698324022103e+00 8.379888268156423514e-01
1.639344262295082053e-02 1.054644808743169460e+00 8.196721311475410054e-01
1.578947368421052336e-02 1.021052631578947434e+00 7.894736842105263275e-01
1.304347826086956624e-02 8.521739130434782261e-01 6.521739130434782705e-01
2.727272727272727071e-01 1.809090909090908994e+01 1.363636363636363491e+01
1.304347826086956486e-01 8.695652173913043015e+00 6.521739130434782261e+00
3.750000000000000000e-01 2.537500000000000000e+01 1.875000000000000000e+01
2.142857142857142461e-01 1.471428571428571175e+01 1.071428571428571352e+01
2.777777777777777277e-02 1.981481481481481621e+00 1.388888888888888840e+00
2.343750000000000000e-02 1.703125000000000000e+00 1.171875000000000000e+00
2.307692307692307473e-02 1.684615384615384626e+00 1.153846153846153744e+00
2.586206896551723755e-02 1.913793103448275579e+00 1.293103448275861878e+00
2.803738317757009310e-02 2.093457943925233433e+00 1.401869158878504606e+00
2.727272727272727140e-02 2.045454545454545414e+00 1.363636363636363535e+00
2.608695652173913249e-02 1.965217391304347805e+00 1.304347826086956541e+00
4.545454545454544887e-02 3.454545454545454142e+00 2.272727272727272485e+00
4.225352112676056260e-02 3.225352112676056038e+00 2.112676056338028019e+00
1.428571428571428527e-02 1.100000000000000089e+00 7.142857142857143016e-01
1.428571428571428527e-02 1.104761904761904834e+00 7.142857142857143016e-01
2.325581395348837177e-02 1.806201550387596999e+00 1.162790697674418672e+00
2.205882352941176267e-02 1.720588235294117530e+00 1.102941176470588092e+00
2.068965517241379629e-02 1.620689655172413923e+00 1.034482758620689724e+00
1.960784313725490169e-02 1.542483660130719025e+00 9.803921568627450567e-01
1.764705882352941152e-02 1.394117647058823684e+00 8.823529411764705621e-01
1.604278074866309980e-02 1.272727272727272707e+00 8.021390374331550666e-01
4.838709677419354704e-02 3.870967741935483541e+00 2.419354838709677491e+00
2.399999999999999703e-02 2.016000000000000014e+00 1.199999999999999956e+00
2.380952380952380473e-02 2.007936507936507464e+00 1.190476190476190244e+00
2.362204724409448786e-02 2.000000000000000000e+00 1.181102362204724310e+00
2.500000000000000139e-02 2.125000000000000000e+00 1.250000000000000000e+00
2.325581395348837177e-02 1.984496124031007946e+00 1.162790697674418672e+00
2.255639097744361124e-02 1.932330827067669343e+00 1.127819548872180500e+00
1.304347826086956486e-01 1.126086956521739069e+01 6.521739130434782261e+00
1.071428571428571230e-01 9.285714285714284699e+00 5.357142857142856762e+00
9.090909090909089774e-02 7.909090909090908283e+00 4.545454545454544970e+00
6.818181818181817677e-02 5.954545454545454142e+00 3.409090909090908728e+00
1.408450704225351971e-02 1.234741784037558521e+00 7.042253521126760063e-01
1.327433628318583879e-02 1.176991150442477707e+00 6.637168141592919568e-01
1.339285714285714038e-02 1.191964285714285587e+00 6.696428571428570953e-01
1.298701298701298613e-02 1.160173160173160190e+00 6.493506493506493449e-01
1.250000000000000069e-02 1.120833333333333348e+00 6.250000000000000000e-01
1.250000000000000069e-02 1.125000000000000000e+00 6.250000000000000000e-01
1.250000000000000069e-02 1.133333333333333304e+00 6.250000000000000000e-01
1.250000000000000069e-02 1.137499999999999956e+00 6.250000000000000000e-01
2.816901408450703942e-02 -1.281690140845070269e+00 2.112676056338028019e+00
2.631578947368420907e-02 -1.184210526315789380e+00 1.973684210526315708e+00
